1.0085092226378403,1.950847699118337,3.3518751289211104,7.819343886544248,26.479529968766474,109.17203101996598,111.08142732867577,109.09757867515727,62.62715738063398,107.0266417897693,28.754179301987353,8.332796866411758,2.5005414745946064,0.7623090904882499,0.23384571324274828,0.07178499642737204,0.02198800138892351,0.006752242701486511,0.0022276146483386217,0.0012665129721071203,0.002314619054922153,0.0070135133614932735,0.023001981463040697,0.07717114118594559,0.26345506470121305,0.9105658802836627,3.1581546063458092,10.892728709977748,37.30655459546004,129.49982303534665,36.950263822354984,10.696804022837505,3.086192563450498,0.8852358530934553,0.2547655604747672,0.08006698710220825,0.04691392603052583,0.09022569320536246,0.2751009286797509,0.907029551787718,3.0662341820835306,10.476109093843197,35.86819107378375,124.45268864190385,42.780642431840036,32.85225832092587,69.59314142875995,64.06084282562354,124.44226520390563,123.21593450777308,122.96045290771605,120.82814231124539,28.376543923742084,6.932501307634756,1.7370226273604858,0.44213624956517317,0.11364456569772287,0.029391753604743553,0.007632486026128987,0.001987587496242439,0.0005186577102475268,0.00013555972208325467,3.5477262644024076e-05,9.29517096386224e-06,2.4378076631582733e-06,6.399532418665295e-07,1.6815729979158362e-07,4.424097932875881e-08,1.1667950703506476e-08,3.0996848707733384e-09,8.461459252651604e-10,2.572159994352868e-10,1.1135070240307353e-10,9.203845749578609e-11,1.3167805870816303e-10,2.668417819168464e-10,7.036102856372923e-10,2.2160089312416366e-09,7.652893013525149e-09,2.7488509758818434e-08,1.0023691269902746e-07,3.675716571374229e-07,1.350971397282924e-06,4.9715991295841305e-06,1.831528250097409e-05,6.755577633413526e-05,0.0002495613687906405,0.0009237292946678556,0.0034276709362529444,0.012759099859712833,0.04767828580995451,0.178986336046424,0.6754388653387888,2.5629111665378317,9.773319632740211,37.37973369444413,142.6853152462788,41.53089760577481,12.243391275950632,3.5698438481161254,1.0251959470099723,0.290500154310082,0.08146220176940723,0.022668935044896643,0.006274701492194672,0.001733594892099297,0.00048811003521157285,0.000168303381046036,0.00014844171457911295,0.0003434226929702606,0.0009823212436297726,0.002845811356919649,0.00814566708772067,0.022905008092289306,0.06303562483288193,0.1693232915604468,0.44344080634267125,1.13249118174887,2.8160823559342454,6.740605860005258,15.005919055965744,28.903539042594232,42.0437863778746,37.154058526570736,28.73640638557382,13.807304155677244,5.503161660623391,2.1475564244321896,1.2715414245927565,1.9860239316274617,4.557318286228333,8.375463103351784,4.645817099985265,1.925657976314221,0.7161981545392062,0.2841618529551769,0.1879401473050263,0.24692568025933243,0.35234841278368545,0.3432069071119008,0.21650766266446492,0.10581445530979601,0.0442562059947471,0.017073891982981607,0.007634119162796699,0.008711699570749968,0.025574222255117844,0.09171738108235157,0.3341521819402835,1.208271544838782,4.288723293122773,14.647620560526594,45.87542602105235,112.35751154520989,27.485130935317134,7.008174089497713
3.035108107793756,6.4290075026307125,7.952313198748667,9.205622382815239,12.732638026734872,27.60259442127672,32.21029349913582,38.42732011999544,53.71594258441167,108.78895244505972,43.224189792708614,14.182669311332514,4.4089185889181,1.3455879286130312,0.40743918256930867,0.12272240867913899,0.03679552385295612,0.011051961015036438,0.0035618380526534626,0.001940682485079081,0.0032459232313219477,0.00878938501926392,0.025128790914661164,0.07219254765331509,0.21285587074850756,0.6661407140327014,2.256226366228431,8.18044305716499,31.111265722621013,125.23805236937316,49.644215612272525,15.78175896549042,4.657266731598385,1.3357493934349787,0.38305357971355464,0.12337970477825513,0.08170715373506404,0.16513048663856147,0.4815250732648828,1.505272120005357,4.887159704992576,16.107916113244766,50.47228114870649,125.91115421225024,47.638952761802955,55.558501546163356,118.82130949531918,70.93993762802498,120.95509157105522,56.43600862283901,59.818123983285886,122.84802532397967,31.889298540287417,8.19116056916966,2.09619855845975,0.5362692679512664,0.13737836602686598,0.03526666581894586,0.00907483205864795,0.0023407282445445936,0.0006051442886997208,0.00015678226329278265,4.0699895717501646e-05,1.0584753013935524e-05,2.757445234800737e-06,7.195423125294081e-07,1.8811283217688442e-07,4.932103529704583e-08,1.3020551564130078e-08,3.5153446992167073e-09,1.0297952973983228e-09,3.924388830923642e-10,2.5275201740930737e-10,2.642248472555308e-10,3.5249323608799927e-10,5.447611967457849e-10,1.0065156569294198e-09,2.3561245452162215e-09,6.875530780973652e-09,2.298692763361823e-08,8.176045809559644e-08,2.9783072155110143e-07,1.0944522854909747e-06,4.036077017561274e-06,1.491328867408482e-05,5.519525277753935e-05,0.00020464458886573317,0.0007603388950863122,0.0028321487385791974,0.010582342345886142,0.039696266984796086,0.149662841436494,0.5681046898503339,2.1772216986949386,8.463195212086662,33.6209523229924,138.13700341306014,55.400628673184826,17.649729810922622,5.176278363491645,1.4627415597901579,0.40590154716707205,0.11161003493987731,0.030551513456355095,0.00834657916396655,0.00228024399692267,0.0006275836094638246,0.00018639745699452478,9.495416058482931e-05,0.0001540956058998979,0.00041109346441782805,0.0011602347246593859,0.0032431878297476124,0.008895618822288898,0.023860485053531715,0.062436071415745684,0.1590438149204628,0.3930954760022796,0.9353875742803224,2.1043565913427793,4.316958488157717,7.581083038946561,10.28797108491444,9.543002568680485,7.371715507852394,4.029348966592124,1.8283523048260073,0.8081722312903494,0.5058617452876907,0.6742940041775214,1.2527018197440305,1.8915433752056034,1.2463057856205442,0.6009308594571936,0.25125205173659837,0.10628058508067835,0.06433043363155697,0.06996156499720503,0.08836634113868577,0.0851861620208926,0.058054320071176294,0.03119450843381773,0.01435592395421275,0.006201781573826869,0.00356400717472016,0.005757972457328319,0.01832024767289539,0.06522970689509261,0.23331999888715826,0.8269067912596513,2.891149418092987,9.947158019934433,33.786941584717596,115.97137823052456,30.932132341581926,8.395726374327404
9.54018068791068,25.635776010123525,28.727374178124947,26.72943918486365,13.108081387550804,11.500603981823652,16.15041912486702,35.540105961267955,112.45222556078089,66.06822965994833,107.61933769787213,29.130110619956618,8.42471281896845,2.494860709702529,0.7424790448809335,0.22031474922519714,0.06501077203463777,0.019202161483122537,0.006150770167466638,0.003569820654391956,0.006430852828666532,0.017348082608107142,0.04678883135234728,0.11799948307077629,0.27534689810381574,0.6171961669356072,1.532619819827087,4.822437544162755,15.942544313727916,49.36748702810266,119.89521851641656,29.6922674262341,7.739899467214419,2.0889401962044776,0.5844268195933272,0.19545050811870393,0.1548188049630419,0.33732499962605955,0.9436469042656277,2.7559183899869657,8.643535814621801,30.811946731926348,124.94642549296024,125.34787817692397,61.58341838056414,134.03848869893216,74.61458871346315,121.80238187615203,53.028471073418444,34.62690167491988,56.66425704518059,122.59805774016046,31.920061424833083,8.228965008636045,2.1127388862770875,0.5419024336558093,0.13908969669326093,0.03575504322341768,0.009209112262268272,0.002376805623677452,0.0006146975141134217,0.00015928967325621885,4.135509535426764e-05,1.0756006167448522e-05,2.8025684191812205e-06,7.317425663322972e-07,1.91656345443269e-07,5.0551848712501695e-08,1.3618978685011458e-08,3.942036462998505e-09,1.4248422768157056e-09,8.148699843112683e-10,7.484976717048758e-10,8.88065372540092e-10,1.1742953138185167e-09,1.6427165055404446e-09,2.4345979139772207e-09,4.038691902152622e-09,8.257239493482316e-09,2.1797067166320886e-08,6.950818668983147e-08,2.4319992858261474e-07,8.818345765505494e-07,3.2371220162077197e-06,1.1933119748434214e-05,4.405786279128286e-05,0.000162772016539907,0.0006015107484050866,0.0022225402542497856,0.00820653849222875,0.030254132316441862,0.11118975573741004,0.4063047336317821,1.4691191236948065,5.207677618092429,17.745781618363488,55.408235289582855,135.0861412093514,33.078080552908645,8.375354962120964,2.1690735010722593,0.5705575339623152,0.1517449472464295,0.04068353158939007,0.010973016038326868,0.0029737063160063496,0.0008107501676541807,0.00022754359087245882,8.079018603544022e-05,7.510331742646946e-05,0.00016990921231791197,0.000461315696871226,0.001257606343816723,0.0033650319581647534,0.008795595250273795,0.022388836960032844,0.05529053576208029,0.13165028506402265,0.2987910224026292,0.6331876256133786,1.2103922426912233,1.978029618012981,2.5599545239850015,2.444270292745346,1.9215351262679374,1.1687218311971037,0.6294309704501792,0.3672629131962092,0.281162811665517,0.3011765284059459,0.3930552528527256,0.47478954251726224,0.33954337907520304,0.18236934307179847,0.08410271134251208,0.037939172160737895,0.021800304406432162,0.020146934953655084,0.022701907030331637,0.021489403803592808,0.015437587307882522,0.008942351267721322,0.004483047722884801,0.002216866331046699,0.0017901698543690743,0.0039518803256044024,0.013359584429833569,0.04802061372815048,0.17363131322792205,0.6286997857389802,2.284108404241064,8.357236556269424,30.927687236794227,115.96546621688364,33.740558509322476,10.022384471426854
25.562365481228,109.11809369207481,112.04671667501384,109.33555716069091,27.685807131882655,12.142528957247364,17.65151130697471,46.21067096196438,113.29908586890716,67.54886225597728,112.89863779922294,44.55394389156661,14.51438699523346,4.45638446575276,1.3322596277885668,0.39167626975647263,0.11375219764655087,0.032999465681594384,0.010570800814631867,0.006896618445139489,0.014421290478178146,0.042079426448365126,0.12025663152053909,0.3136686213151797,0.7040298678680037,1.2290695696500398,1.499858841635731,3.2790180742565402,10.354075587481077,35.12910696909829,122.95285952938926,34.73672760828322,10.000922449249547,2.873565496984143,0.8391166335232276,0.3100777193775994,0.31443016829842396,0.7603538018891265,2.0871129627158584,5.443055501029011,13.406190060824922,35.1738029707313,125.84403516314052,62.69027013631331,62.475190645725775,123.59101785979666,73.02535221037557,119.82032999483047,40.78645131838354,41.632673308081266,122.94245887271728,119.7017974398785,28.804047259914586,7.149829171536435,1.809367316910921,0.463316751013241,0.11950233725347284,0.03096478456603103,0.008047992667866552,0.002096295721138428,0.0005469454990471392,0.00014290316677684114,3.7384996984436854e-05,9.79362021730675e-06,2.57021654650577e-06,6.766883208398855e-07,1.7953082543793072e-07,4.87147328496839e-08,1.419943537043847e-08,5.093053116947159e-09,2.7623519161861377e-09,2.3234410742546643e-09,2.5352986559685876e-09,3.1413744024616287e-09,4.162496768742564e-09,5.702644608701147e-09,7.919663419240839e-09,1.1184189460239974e-08,1.6832147111446737e-08,3.00300491809933e-08,7.029166629445673e-08,2.1002608670420633e-07,7.162332290219871e-07,2.571700754700283e-06,9.390445009029888e-06,3.44467876818166e-05,0.00012641889917733951,0.0004634133245545154,0.0016950435462856795,0.006180216036794717,0.022432232684216312,0.08091682703974226,0.28941483250814226,1.0235106917496901,3.56796975440962,12.237824479513238,41.48048549672208,142.49131483394643,37.35725733505687,9.82869735525324,2.60578695056012,0.696625208288131,0.18761858298699446,0.050831712795229,0.013834279160598243,0.003778227693134379,0.0010356674895824517,0.0002873237345506072,8.714004732888374e-05,4.5824900305566725e-05,7.194279519194834e-05,0.00018014390043333484,0.000476102578116747,0.0012413713326091059,0.0031592175299134545,0.0078108193320973185,0.018660277627963462,0.04272467621714671,0.09252064945805195,0.18558589724364005,0.3341777243632627,0.5167479024551005,0.6494561482372415,0.6411295375386518,0.5445031258127819,0.43201592387238197,0.41224877348175515,0.4848114657712098,0.5126756831032565,0.4585471017399114,0.32966362644911484,0.2245952479700412,0.1337956032416137,0.06963910855588225,0.03305570108593779,0.015451432134804797,0.008385285692643034,0.006417833287961692,0.006208762286056177,0.005610766462450066,0.004139448704804715,0.002538964141742876,0.0013831447843280385,0.0008261988351994503,0.0010082652948431854,0.0028035552120954594,0.00986476485235116,0.03590307781605462,0.13174748101324335,0.4875522057052438,1.8275646653449944,6.984465676646822,27.456479062894715,112.30783549349712,45.52336802604245,14.756763896154087
28.486152959518385,112.05640561271392,74.97820647521327,112.3187162851769,31.528675285806834,16.01725132280318,31.40544879776951,110.77332263463644,115.98537982967434,113.02722020778535,116.06782564803353,110.7805279349867,29.651280795112946,8.396799461792007,2.4030179863412355,0.6837310438785212,0.19282667840660045,0.054471634145261044,0.0173779505935907,0.012817798723634966,0.03112084514689774,0.10045055408336637,0.3190029100073425,0.9397257454317591,2.406094118138987,4.553332541460897,2.9584455860807193,2.997736472259679,7.773784167803726,28.10021966961677,110.81803270976354,45.77431624482644,14.655342123015505,4.312413702927606,1.2666297651842966,0.5114690063252412,0.661330683560776,1.8232546806944168,5.375621569111386,14.409111592646322,31.17674607856744,40.98064586849602,124.02739734357685,62.474516832089606,126.98643749768055,77.48247159301752,120.12617669416314,51.07631190368089,30.23723353397105,51.44022798246691,118.6458315616405,45.139514314199616,14.052595523239503,4.05659544375706,1.1303190926387638,0.30912841825924287,0.08364279124830411,0.02248333425142911,0.006017763457761592,0.001606030536239424,0.00042777659225414464,0.00011379883137325195,3.0258099558205613e-05,8.050501605449359e-06,2.1484223217067626e-06,5.786399867633152e-07,1.6012555349474594e-07,4.8006287577232514e-08,1.7769847570988295e-08,9.654494952059848e-09,7.732775029099299e-09,7.828125889061993e-09,8.998478787390359e-09,1.1262385617518533e-08,1.4956666287474097e-08,2.049099095868303e-08,2.81965485325267e-08,3.8314634328599654e-08,5.152140453396483e-08,7.125941451373548e-08,1.1218567519170937e-07,2.3043169632617944e-07,6.338379561768845e-07,2.0864042739421045e-06,7.391061869228235e-06,2.6813519113247325e-05,9.788126628779812e-05,0.000357506753458987,0.0013040916621150614,0.004747481498037564,0.017242220712319033,0.06246414130868506,0.22575674262763923,0.8145604398855728,2.9388057371023644,10.632710007584247,38.745538377289954,142.86023022508914,38.74545126823293,10.633784883781495,2.940325638747092,0.8157881822193566,0.22650962959217735,0.06285388303439124,0.017422718436899205,0.004825713192619234,0.0013377033421555437,0.0003735912795198493,0.00010890146308168834,4.076324188609884e-05,3.577875809487645e-05,7.150233242008775e-05,0.0001774938918413183,0.0004478759294596806,0.0011075192645005074,0.0026565838746741553,0.006135634456456445,0.013516845152842218,0.0280223008848958,0.05362938402714719,0.09234030378961258,0.13882392411711802,0.17890492544469577,0.20854765843654133,0.272338167197721,0.4666218127426512,0.9272342807967604,1.6166814248460384,1.851532719442901,1.6077667724811513,0.9017841561320108,0.40932271561225664,0.1689958838485556,0.06861400393594361,0.029140954482427667,0.013328433869510076,0.00664214432665956,0.003766016795415866,0.002522066935593671,0.0018269839802467,0.0012493743167528253,0.000768840093603182,0.00045065800614110384,0.0003489166009787795,0.0006296678673951287,0.001996420799774012,0.007122371656123326,0.02578560730258274,0.09339828933023965,0.33730130213424536,1.2092617054768375,4.265513775371808,14.51888597043012,45.48005459013319,112.33505025728101,27.85903383569793
26.12621411019787,109.73180138249867,113.44740027837497,110.66878634700187,33.15027697497827,21.026854895995378,43.99060752220271,108.18342727065728,48.07821326934284,38.24522029676285,49.79058913242413,111.62716133095643,44.215970378665546,13.870113523545104,4.005317784588319,1.1148653287668189,0.30500519476926957,0.08362571018978072,0.026407469878016343,0.021511378156181878,0.05903542759620698,0.2105001428975929,0.7535845290083902,2.599588823129046,8.239476554073264,20.72638597489564,8.69974566112801,3.9751710054170912,5.1906732774648265,14.88039417103508,45.648883014425266,114.43579502789638,27.844400341089443,7.078944832381694,1.936779248329705,0.8307758698287749,1.3188302460465746,4.142222029605213,13.934250178611721,44.45924640717011,118.26452894943739,55.50592881810053,124.70437702480802,61.14299601496694,124.8053663466012,94.19119750646476,89.99990879084065,36.27413119912072,38.120409999294964,118.12562949110867,48.376321208168804,18.436861360439217,6.315416121565763,2.0068288751276606,0.6068233769053605,0.1774918746551482,0.05074265772567988,0.014274666236477943,0.003969223291034469,0.0010943474462823785,0.0002998846868650527,8.185512965032026e-05,2.231426738609553e-05,6.102867535477031e-06,1.691175791522133e-06,4.866037245384973e-07,1.5457622118999722e-07,6.142759154797699e-08,3.475886752619894e-08,2.7331293995324348e-08,2.615167741728782e-08,2.7914060443627643e-08,3.236506256179304e-08,4.0477794227785113e-08,5.3824124379900463e-08,7.409008632339624e-08,1.0245400248863669e-07,1.389856634448664e-07,1.8272223125000713e-07,2.3381935817574543e-07,3.0113127401588463e-07,4.2654045988427633e-07,7.699585377710364e-07,1.921825063547227e-06,6.0560028191501e-06,2.1161998840641026e-05,7.6548425977215e-05,0.0002796542677965472,0.0010245181749081384,0.003758360576996576,0.013809468782975249,0.0508690574724099,0.18810104206343525,0.6992894678337441,2.617594220734749,9.874091451599938,37.49980453434425,142.7044560450337,41.62143516547006,12.288235040455714,3.5865938159215816,1.031268616688739,0.29279712931232194,0.08235923738204187,0.023022435233786515,0.006415629683526274,0.001791248091211729,0.0005076191373312568,0.0001519142097552981,5.407432983446155e-05,3.04641790711238e-05,3.5597444150996924e-05,6.94825110513946e-05,0.00016087108780715208,0.00038143825295575487,0.0008855301949906642,0.001980100083258833,0.004218459358554359,0.008466926671333455,0.015827802244734693,0.027410790230147575,0.044950413013299356,0.07660182187727393,0.15891332043817935,0.41435640619435177,1.1681425045890437,3.0678536737101183,6.436510083065359,7.37207243622696,6.434736657572086,3.0639518222495425,1.160561005722932,0.4022429803015197,0.1439080767287962,0.05984758800317456,0.028736072273168434,0.014373129602388382,0.007014056222280273,0.003330638551843286,0.001579696166683638,0.0007609731218623557,0.0003740440969822871,0.0002030465579366232,0.00018697489713699454,0.0004244045087747956,0.0014229300630301562,0.005087436982032056,0.018289905013078832,0.06555534553136655,0.2335956122931512,0.8251904900099778,2.8804692996770696,9.911268394181006,33.71855581959094,115.9983476646225,31.42009091268766
12.074220631120165,33.490566824574536,49.19137495516816,41.19595271938214,35.67734532106556,33.00299355598811,103.3279141687941,57.50445761021686,26.055252218962597,18.575299171024813,32.80332751879198,110.65925855510889,110.1472666223788,26.602593516224758,6.6439098688767615,1.6951379493648038,0.4387134512524174,0.11586996234613745,0.03592978032854474,0.030807572739233006,0.09108019937656942,0.3499303466975935,1.3924152980163602,5.664746110260863,23.70479040827591,102.86576109271168,24.53847140037462,6.962870621650033,4.514690320533065,10.342589064703631,33.75907617785661,115.96043999493676,30.89632006324308,8.380075701943415,2.4443250225834654,1.217576718271129,2.278652893284684,7.776997072278567,29.628411065783624,120.14758772232528,56.545087341705496,49.086021065861715,124.15892761158855,54.87371588630283,84.13044791781165,42.89641337297674,35.56088140754798,38.448156500907835,44.08546577156938,121.6383300591124,35.04960483582442,10.789916518701121,3.3962109705882035,1.0621383085377816,0.3263004190105905,0.0982567950406061,0.029046614214149048,0.008452782150724198,0.0024285626056849046,0.0006909461635553256,0.00019532895300347319,5.5132992277521394e-05,1.5669507572570297e-05,4.5612604297951685e-06,1.4091611674105072e-06,4.952303477555382e-07,2.193004575587631e-07,1.3122417299443328e-07,1.02024472042904e-07,9.34227240763995e-08,9.393193503567564e-08,1.0113949679362301e-07,1.1680004191195511e-07,1.4541519280749865e-07,1.9342019944074732e-07,2.677714001131573e-07,3.7345171663103084e-07,5.104231126019552e-07,6.720069613454661e-07,8.478032292748456e-07,1.0342421508435768e-06,1.2577212511925574e-06,1.63754774701783e-06,2.6185847504201226e-06,5.861131141484108e-06,1.7554045134233727e-05,6.059302293830369e-05,0.0002193522524349428,0.0008050025425406467,0.002968695006058503,0.010987173936125996,0.04083969267936385,0.15269098444681822,0.5754811043187081,2.1933786678724507,8.49443994693638,33.674741332141906,138.21290371871274,55.99046863909806,17.887596377561156,5.2597335996379435,1.4924325726791747,0.4166452922109734,0.11548197671175159,0.03193702590025173,0.008854381583540169,0.0024865363842572997,0.0007289612435006648,0.00024089032828438192,0.00010130434829424859,5.733454234640786e-05,4.21356423633754e-05,4.293264250890033e-05,6.642983337608245e-05,0.0001347089704362055,0.0002950589590552424,0.0006409764895515285,0.0013468842438916465,0.002732997539815886,0.005459712539779933,0.011346222333238846,0.0268659418552566,0.07684227236746911,0.2539740361209092,0.886744444941167,3.0600231348871416,9.875235173809548,26.562452963609047,29.50965515728142,26.56462891447486,9.886629114070224,3.087848516174274,0.9399929155088345,0.33274388813213945,0.15730042453465504,0.08486728216393757,0.04384650479222203,0.0206145523840341,0.008868011986502135,0.003559581346149489,0.0013627241507553835,0.0005114048084915617,0.00020660234735935375,0.00014548171513176905,0.00030685422508649454,0.0010293180876000732,0.0036894151599600224,0.013311040262491646,0.048048266551729626,0.17352653608331753,0.6278163226128085,2.2808431384996273,8.349699275387916,30.921664268608954,115.9998656444004,34.240364352194746
9.019017902863633,29.946003978660237,107.0143299086773,51.63820969305728,106.71484867604484,37.98584695007365,48.160332718180314,107.46015200288716,32.17354326319108,14.347994991631461,17.794818254194038,45.38214611549749,110.29020821394386,28.954271082547884,7.5604099630826855,1.973339047292826,0.5162676010342935,0.13695083230608185,0.04249367700788166,0.03632407857410201,0.1067078492263831,0.4055864398950385,1.5862308021313143,6.29168213214386,25.45875869260965,106.2942944057231,28.70245102675797,8.74889100357543,4.5920089593799,8.901373718797032,30.60254499307405,113.77584864999226,33.19300434148886,9.860864293452261,3.1315184669565443,1.7517065239298502,3.3585133231118336,10.61269644499788,35.91163142148618,125.06199207587889,51.77238631260861,58.306182623775754,127.44394519974885,59.809923773449846,52.08309965053431,43.49595340603609,42.020809780562665,114.76846062720895,66.30589807010108,118.51779823860043,29.4930612289642,7.8568219453548895,2.2097948747245533,0.6434895865002355,0.19058403357979462,0.05670186236374887,0.016827450367884102,0.004966849848033296,0.0014584240287954377,0.0004274379763611976,0.00012600987532293935,3.794436343876465e-05,1.2008525342009692e-05,4.18602630331318e-06,1.7073004353902026e-06,8.563167370254614e-07,5.347720034126099e-07,4.045925168169556e-07,3.5274106766039233e-07,3.37248643384493e-07,3.4287771192674353e-07,3.681909433704797e-07,4.21880499308816e-07,5.217931212645044e-07,6.935104793439276e-07,9.656663982837698e-07,1.3600617845824357e-06,1.878094334190368e-06,2.4910931949459887e-06,3.1467509052842848e-06,3.7987971505781737e-06,4.447997149409662e-06,5.179021942723263e-06,6.2910045504715705e-06,8.938154145100704e-06,1.7708117884973556e-05,5.010341408343063e-05,0.00017086368133415922,0.0006174498218422963,0.0022616329806878018,0.008305187148358378,0.030490940220828988,0.11172406761940225,0.40752750575923646,1.472756735244869,5.224428230003986,17.841299792858084,55.95987040620669,138.22087657284447,33.787140986175224,8.591778831665751,2.2469479275373936,0.5991600745625921,0.16195030477724254,0.04426336187243214,0.012287097533205716,0.0035446273872912354,0.0011387216111310508,0.0004631621681560801,0.0002555268893002403,0.00017010308434969935,0.00011694922517394734,7.954786826254955e-05,6.0066299504236804e-05,6.532677723015341e-05,0.00010913809935305646,0.00022381565110344946,0.0004888720754281058,0.001124461783890282,0.002851253120890175,0.00834088937424898,0.028056743417532302,0.10361183435137501,0.40134417897863983,1.5921130924446,6.4300166859830945,26.56108127065099,113.55331736749793,116.55877662937763,113.55675255792545,26.603345431522676,6.539908061743653,1.817122108445074,0.7552619120205513,0.46634378890867884,0.27932069138357996,0.14322406460297216,0.06395874130320017,0.025703299636985942,0.00954705577295578,0.0033443856280288954,0.0011250582558523462,0.00037968100259616855,0.00017245882120777155,0.0002419210390123293,0.0007567090775237675,0.002708695627636357,0.009838654850181407,0.035896677433202066,0.1316990150422161,0.4873377710839286,1.8270739333199713,6.984419851037907,27.461864872274475,112.3374740249803,45.9279130219029
9.02611045975485,30.152109235845973,110.86545461783344,54.90412685423937,111.54794155840332,40.03690675022866,40.18808318732697,110.9358631604888,45.17786036566529,17.54430926137885,14.235440899243295,33.5485916697382,109.57141230855983,29.27241480203603,7.790939779778647,2.0682187702751733,0.548602275354436,0.14707375344817858,0.045757370838561386,0.03793537247111434,0.10725637751258867,0.39064964131494057,1.427700942732627,5.040357187861341,16.46178520951504,43.68173967949021,32.63304935087468,12.236015413664681,5.387098713373871,7.871099295624607,27.17897141179843,110.04534417241736,44.62499304224557,14.460587250324751,4.73221496177369,2.802630635239594,5.5080240764585895,16.62903685311071,50.16668894225673,126.49360109097583,70.72105583429155,121.53474316443538,130.16142252050096,124.45878190411314,125.0622728059083,123.97539763214286,58.299563242583,59.08572307507621,120.46366378322772,48.41269985073369,15.534142354005462,4.6481590497394665,1.362246745903993,0.3984203021592834,0.11701233360419297,0.034542895194208424,0.010249375781373405,0.0030624425407960393,0.0009276937426932286,0.000289247790493483,9.534795913420081e-05,3.451478769011749e-05,1.4251254737410022e-05,6.839071612684019e-06,3.792298404592068e-06,2.4005976355944184e-06,1.7284223090744796e-06,1.4088178568342986e-06,1.2725807737180014e-06,1.234450356643423e-06,1.257894749769813e-06,1.3432479521936959e-06,1.524498889305957e-06,1.8699525561267849e-06,2.480183157074544e-06,3.4726547256630995e-06,4.943158258389446e-06,6.906987913011829e-06,9.249706968855815e-06,1.1742811856906704e-05,1.416379269793152e-05,1.645244255196398e-05,1.8697582209440517e-05,2.101026646458533e-05,2.3768671293674995e-05,2.965309394707627e-05,5.1455662343147296e-05,0.00013827659964428573,0.0004671997264911708,0.0016784659078676334,0.006091375752507488,0.022076693877849454,0.0796349752895299,0.28520312737243947,1.0112060078335396,3.5380729049845865,12.18875878879593,41.48414235282486,142.7196220571082,38.02259413497997,10.256850476643946,2.7983160863168437,0.7694169228499433,0.2127964155166794,0.0594057430238929,0.01706021435597075,0.005355408795153345,0.0020955788678383245,0.0011438341802208073,0.000798591735001414,0.0005908078492776008,0.0004099087560680598,0.0002573390423882129,0.0001490933181566354,8.804729408742171e-05,7.062720872949353e-05,0.00010390724228800595,0.00023807077368325687,0.000673647967207526,0.0021824550274218545,0.007791117373832553,0.02952179492431324,0.1154278113446089,0.4583661109549545,1.8345732447647003,7.366882617915836,29.507918396615366,116.55852211837009,77.70845608937836,116.56904505347298,29.636782855396746,7.731132314319898,2.667569761397406,1.9153616866374155,1.6061797055132871,0.9814890126258914,0.4722184501388308,0.19421053119520884,0.07184598875925757,0.024675068026570355,0.008031475588609865,0.002514878095997452,0.0007739665911575399,0.0002676691705063625,0.0002155041102559425,0.0005603197108938465,0.001967394678152946,0.007115515777758372,0.02579412815508529,0.09343310565284835,0.33743735552857546,1.2098428392983644,4.26788102524508,14.527631089019692,45.50994086110703,112.43861247496257
10.90057369954144,31.075086358827342,111.18847259245474,55.373155256142226,112.52294735982285,50.49956880556803,41.99539649506402,111.55947971782358,110.41344650893302,31.504559311733075,16.524926210148692,32.102550695128585,109.44314695712157,29.31786564132986,7.844595143277992,2.096431519225133,0.5600535273689703,0.15113204218999238,0.04704142210419374,0.03827440790143401,0.10824540206309408,0.4033540877493893,1.5489680250881677,6.060974842776525,24.589855697129032,106.70130911082843,111.17808998533526,26.64705341416411,7.6234686115740375,5.759151929778305,14.554840009674539,44.5334487566825,110.05102248924246,27.54545120447699,7.998553418121252,4.823838249275435,10.257963647289401,33.48681165495106,121.96586428796768,73.40242605773152,124.52560443772951,54.932447043702396,42.47862339305168,45.87210875725561,70.04430309904693,126.31379005106288,124.71544896771624,60.982650797437614,123.17951692703699,35.96059472856852,10.650933994595425,3.135743253172456,0.9171062488006557,0.2677731469472791,0.07852677069187144,0.02329379941593531,0.007063466585351872,0.0022307358726763086,0.0007560480960744121,0.00028500706477227125,0.00012231530129866506,5.954514883032952e-05,3.214514377964894e-05,1.8804850230788848e-05,1.180682074388377e-05,8.026548362874505e-06,6.026346358605551e-06,5.0473115413963566e-06,4.6394753611698954e-06,4.538977972988232e-06,4.626792477855015e-06,4.9089031307159265e-06,5.511912328206446e-06,6.693240169115703e-06,8.844981181313452e-06,1.2446920540230837e-05,1.7919245127079316e-05,2.5370967916635347e-05,3.435734884827037e-05,4.38966205693686e-05,5.298870462814026e-05,6.140528325500219e-05,6.954376229737053e-05,7.730434073392492e-05,8.301051320528768e-05,8.498611216066178e-05,9.070086638409115e-05,0.00014014052769723703,0.000369006029592809,0.00125058698751934,0.004487907580969466,0.016242872004230365,0.05880596286748828,0.21285027535233086,0.7712032793993436,2.8040444032740615,10.269037682108053,38.03660286483836,142.70941677615858,41.371951289952456,12.128413806901117,3.516681190869781,1.0062289607035453,0.28600552244899774,0.08231446639827508,0.025313036783572555,0.009432032159819762,0.004935508620524745,0.003505672310329026,0.0028013814912098358,0.0021662435202464314,0.0014943564195685976,0.0009054843118420326,0.0004891072729599412,0.00024323646040824796,0.0001226706166484771,9.092982021183588e-05,0.0001619973571759034,0.0004969002182497629,0.0017787117026008764,0.00670156491701124,0.025855097409905662,0.10106712783701072,0.3988514306417781,1.5900776472728109,6.428787380131859,26.561024372755263,113.55441714247073,116.56439273504948,113.590484454908,26.91717433306491,7.5425332073815845,4.541802458982049,6.463158740893249,6.273883744907737,3.531215228719651,1.5143870924089127,0.5572400069699646,0.18648703369678027,0.05862588803859892,0.01765452178106249,0.005158768140364964,0.0014815712778452558,0.0004440855004169213,0.0002231147411231166,0.00042231039943042316,0.0014198369526291015,0.005092916983130583,0.018319470066702967,0.06566813519121326,0.23401041713631143,0.8266647216965615,2.8853923721145183,9.926099775491572,33.75592757767968,116.06413643929304
16.556360161239684,34.209362625121884,111.11362995235532,53.623384730336426,112.35825684293448,108.44216222829266,49.72524725966555,51.01873402657381,107.7850094535888,44.54467388993788,21.307006354787205,33.09863933376305,109.51028737480932,29.347036945543557,7.862333919334311,2.105721674428663,0.5641553274442608,0.15262355021861165,0.04708471169517473,0.03642425077020192,0.10058753921515257,0.37226145803013355,1.4017782772704657,5.186668146580617,18.315065019654217,57.183025117182844,112.86802788949697,28.844746474410687,7.947507612127944,4.505503661796648,9.857467959788003,32.54948586876067,113.50022192651528,32.76254406917349,10.889816093201398,7.883881795002365,17.729107903051318,52.06800514133862,127.731235285877,67.42948652971609,126.6870754012802,41.05571126699786,23.90576203685113,38.25094414732193,123.01764698005478,71.85070850940456,119.41639678368085,58.915215814796255,123.03057891466247,33.52041759904506,9.275123631826112,2.598260225899191,0.7368743467802064,0.21258556003186418,0.0630813441838213,0.01962966402418014,0.006606888442126209,0.002502458013835529,0.0010928518963046656,0.0005424312007670675,0.00029399163505518895,0.00016829566021354562,0.00010026960887936523,6.203806524851637e-05,4.021722746504721e-05,2.7925525439163294e-05,2.1355795938287967e-05,1.8209229671768394e-05,1.6977981878916786e-05,1.673314964226106e-05,1.7054979013656124e-05,1.79714660260404e-05,1.9944831780101092e-05,2.3932594949047538e-05,3.144954322145964e-05,4.444464220732914e-05,6.475442404722027e-05,9.304222561145058e-05,0.00012762679763476248,0.00016429085808289428,0.00019846653124653928,0.0002294467900525384,0.00025985536758585555,0.0002902615024363061,0.0003120039550434644,0.0003065521994275156,0.00026762289610350083,0.0002428596705622363,0.00035610893584910627,0.0009681424066861324,0.003342610741559612,0.012086667699075002,0.04410765455883859,0.16188928247471407,0.5991189899361301,2.245952553152387,8.584820035739972,33.757020377938694,138.14556912971472,55.37128302167507,17.624999883940514,5.167128291297184,1.4652701280525493,0.41469329207548694,0.12316249613318733,0.04307150778736975,0.020988238759667932,0.014579768385161361,0.01215330957001877,0.010337781381682145,0.008110915361422557,0.005484501929255063,0.0031921031361354436,0.0016368295473527315,0.0007595935787536478,0.00033123021054128526,0.00015700370515862882,0.00014608333091056485,0.0003670442825142716,0.001291350052922401,0.00478446301572835,0.017840096781098786,0.06626842762577162,0.24359769778589238,0.8782538280985271,3.054739642847244,9.875023317313653,26.57449015539777,29.564681176075503,26.784894258981485,10.733245480703143,6.065090137922651,10.577553044220062,26.04790455483229,26.04274879432024,12.417531522375366,4.52564886862503,1.448355384518886,0.43121031841286067,0.12293870472718041,0.03411099891880119,0.00930163768728459,0.0025126074351321096,0.0006921578130267932,0.0002567884366354126,0.00033059099193647455,0.0010363996550606567,0.0037026791016930593,0.013361640070788683,0.048245818291416755,0.17429229040151845,0.6307427016301747,2.291708710253896,8.387647614135554,31.035388390186448,116.18203232005408
29.959380206520922,46.511099278308976,108.2086239956547,42.895266330586495,52.55537987438209,51.90328745039689,96.89519080806282,37.04266772836494,47.99506153785855,106.67146821951823,33.6737986948736,35.671991577853234,109.68753946640349,29.391734737787857,7.876649752755656,2.111409280568274,0.5665332126493202,0.15336921998224207,0.04641904707804113,0.03259884580945025,0.08659412442748585,0.3278488439457938,1.3027720339238773,5.3421907397825,22.93084115703282,105.21374868311743,108.68258465502274,25.605889930675108,6.711326924986293,3.468894469085636,7.5349782184961684,27.405776569578258,110.02825349910877,44.63977519084729,16.693917276911286,13.860528524486043,36.16479683467753,133.46087600415234,135.5697419483431,76.75618243340782,127.31573751937307,40.80898312015344,21.649293413735315,36.710147109770126,121.46972925843649,62.35641724162885,59.436294395912554,50.061668392996616,122.43932968502581,32.856208319213295,8.881129971416994,2.4418201236163735,0.6932940459495276,0.20778452227987843,0.06774607035501208,0.02479595210319802,0.010445742029389716,0.005084271871905993,0.0027561740671509854,0.001582736608470279,0.0009309076480518557,0.0005559675685163901,0.00033913878403448057,0.00021293670491589692,0.00013953295335871981,9.795358086877009e-05,7.597367416019056e-05,6.587428867200926e-05,6.228603659830138e-05,6.182695898800523e-05,6.299846593578028e-05,6.592008223176926e-05,7.22530173773122e-05,8.550795452360877e-05,0.0001114750409910677,0.00015801696543506411,0.0002331204313374626,0.0003405011640700853,0.0004740703532659598,0.0006157551990466954,0.0007440728347156627,0.0008569535582278335,0.0009698801507289184,0.0010924053512545919,0.001192199515191677,0.0011747002332574666,0.0009656246402471619,0.0006932856637235738,0.0005566455082534601,0.0008595477751887358,0.0025129467626270724,0.008826868889821447,0.0318640143117542,0.11525877500098489,0.41566882459033627,1.4877318899641587,5.236909601240698,17.775130237339134,55.41446282273975,135.08517782644276,33.08317418376973,8.395818544920264,2.2035702242390798,0.6137216058181875,0.1988957105379923,0.08896527504779068,0.058846124225656715,0.049401553360756724,0.044496635342940086,0.03896108186744171,0.030676965337351696,0.020109636658403783,0.011125803028362836,0.005380173296267357,0.002346265254219622,0.0009481133626869582,0.0003737788692880869,0.0001904546406145853,0.000267932093002901,0.0008178813166909079,0.002873766343337681,0.010132592635187095,0.03510564335062784,0.11821250034927736,0.38110798068521634,1.146373331539427,3.059885732881649,6.452819296526706,7.464309907024305,6.820954442202262,4.632314154249823,7.537209095231117,26.81052111358339,113.2039667495602,111.51717294380606,40.40557624258729,11.77361921244702,3.176033113105462,0.8294807875343176,0.21368502299282166,0.05477112931727969,0.01402745162940928,0.003600277832636019,0.0009394655059763162,0.00029486707372609135,0.00026804746049235485,0.0007652908841053051,0.0027251179011784366,0.009901872964919326,0.03615284408498018,0.13275480535120787,0.49179048742907266,1.8464695736431307,7.072688808881414,27.886722829249397,114.52221324858161
50.404508366835344,106.68922884255639,60.22975307510687,42.98420938314577,108.1754686223747,53.526991791643816,48.01548685421407,26.34701999769448,36.47122382567935,109.94172209550426,38.39232601708294,37.57197197207925,109.83838247788795,29.43918226202442,7.894420578843494,2.1195510435760063,0.5702654479011444,0.15463950994747946,0.04546150498137974,0.02615565258097264,0.0585295175945185,0.20546544729326593,0.7448143425445052,2.6328631011576835,8.714042499642781,24.03529270652297,24.645452682956716,9.396681529630936,3.2456695380290697,2.0615580092347097,4.47773031252512,14.321941831103928,44.29403740084052,108.35393629989021,30.773383852933012,22.42057524032507,51.938268576375506,125.85718642779219,86.98153093842485,130.22212860301462,126.13289268846131,54.8331565208144,28.470868215637218,38.89091583912702,54.76479013686351,121.3817712860195,124.78328395716905,59.579170462245116,122.64603672484498,32.2963726597919,8.71362775384619,2.478236498432528,0.7732852830207071,0.2730814573428666,0.11081460356317477,0.050954236210606185,0.026187339759108072,0.01480125712105973,0.008777184026224977,0.005266906734851766,0.003152750076269277,0.0018974633187984595,0.0011656588218952315,0.0007369104268536647,0.00048609020690260475,0.00034428933225454686,0.0002706583794820761,0.0002387767916017952,0.00022903699005087706,0.00022894410175168875,0.00023318877538125107,0.00024229754405148273,0.00026214523572839403,0.0003053870738242253,0.00039387578276627386,0.0005590616780745254,0.0008354500344724058,0.001242773974205639,0.001760538958844216,0.002312097148215656,0.0027932617197729084,0.003198321573869881,0.0036100666273052293,0.00410209093917065,0.004574087551594539,0.004583825044678446,0.003658139048398431,0.0023945841632785846,0.0014309306747593451,0.0011195519735657505,0.002048653169192641,0.00649758456547241,0.02299078742088031,0.08213052862910472,0.291903292640744,1.0278603608015326,3.5737754444009253,12.242388622115655,41.48089974294193,142.49392519489965,37.393048847314844,9.921038570215602,2.746611066643479,0.8651704080565661,0.36752488622878837,0.23297830773572537,0.19372167818572497,0.17848679221078217,0.16646386725942333,0.14825510914267634,0.11688015813684213,0.0733705496554531,0.03807290507937043,0.01717214194766896,0.006989711287609772,0.002637405842072755,0.0009471015072683492,0.0003549335504859591,0.000232212318197641,0.00047423941088246526,0.0015076610924197324,0.004976049336058269,0.016020339493530995,0.04946368027392762,0.1438082241240668,0.38250663282245423,0.8850984519101119,1.618229983856516,1.9474045273413556,2.0442083329579672,2.702475907362415,7.715329165630843,29.544397792488994,116.2756244827824,74.01023041647008,106.72513377689528,22.534457050364356,5.00474329413255,1.1559562706947621,0.27491951637815226,0.06680330236264603,0.016491664939255378,0.004122142425298412,0.001049490316468994,0.0003049010392524646,0.0002175358131862582,0.0005621802879003827,0.00198086445635293,0.007171635732568663,0.026014567902337166,0.09429321019167608,0.3407758439499231,1.2226294352944023,4.315292836260399,14.690046527846896,45.95201920077376
54.229680360459845,49.882300760651134,103.49645622928439,46.60476827080658,111.15268161470598,113.06770782287728,111.32371852788329,36.55274157790856,34.54353932301886,106.94430017167011,49.16646334004055,41.52913175965137,110.12719065158244,29.510555777627236,7.9311404147048785,2.141210954143127,0.5808689212340608,0.15874088682011062,0.04555482028178526,0.020344047100487365,0.0329618812653866,0.1015999796747784,0.32778547289220483,0.9961310249763153,2.6852580331432163,5.638512373420906,5.758157206563664,2.8830770261247314,1.3044507643224805,1.1770537357684354,2.947903816315915,9.754106703679666,33.06009277494025,113.95578435362248,37.171874300471536,37.95127048815587,127.18705295545828,74.6676406590557,130.2401286513993,127.01678492127365,75.32047776348337,133.58619510063448,55.45184352014657,113.3996895724913,46.84632443759805,69.76906663195508,125.70052456183208,59.98403369846005,117.58693218176123,29.562363160846928,8.62602739343572,2.9406858301119003,1.1950996963993212,0.5466043351934395,0.2731058574705639,0.1439275218381563,0.0809228031935928,0.04875874706911934,0.02983876623428739,0.018088769698146066,0.010821222755913584,0.00651040344610986,0.004020440401684785,0.002556776827408255,0.0016958085289486974,0.0012110338262738302,0.0009649104788759242,0.0008670910914058088,0.000844215010353477,0.0008496118860899993,0.0008648925405485547,0.0008925311709674822,0.000952933779117344,0.0010907934699270752,0.0013873309037078251,0.001967027285773409,0.002977744123216808,0.004520153687847128,0.006534292277378041,0.008703027011630117,0.010505078761836251,0.011929647537913313,0.013390107100061924,0.015335986104869541,0.017566409810526463,0.018096023434820245,0.014004800442186396,0.008585149592790157,0.004514802403458276,0.002378180222253781,0.0021618357134906147,0.005119197912940059,0.017452597018950536,0.06263031671201919,0.22576004182349046,0.8137515378033684,2.9354940822476667,10.624526308011935,38.73462181789655,142.86675362477146,38.86015513500412,10.990752962415026,3.4898871973496286,1.4631648896489424,0.908104891042447,0.7476580069520483,0.6920188449421856,0.6613336544587882,0.6275446668601413,0.5672255475923509,0.44897832468557175,0.26516059805810227,0.12676893584473772,0.052590062022766206,0.0197824546816973,0.006939508894871452,0.0023164907817632943,0.0007598328368351792,0.0002961688548145208,0.0002876817379865104,0.0007219114642399821,0.0021957027952117947,0.006576664000572262,0.0187410176766906,0.04977105096280268,0.1197597893611193,0.2499683619000527,0.4240576273609221,0.557678940209348,0.7944151208417726,1.823003791335859,6.507892198702539,26.46491199293734,113.03915186804026,109.54345129533675,40.0396318229437,11.703246018711301,3.1620133306307197,0.8265940261235537,0.21307250221868373,0.054637503541188875,0.013997093218178543,0.003591421463430081,0.0009304329282867725,0.0002675130321334444,0.00017008609147234712,0.000409390573757803,0.0014262528164700984,0.005132509071802553,0.01846971740479808,0.06621404394658838,0.23594193078438755,0.8332383579129607,2.906392245539684,9.986244300797825,33.896545437015185
115.44948965712659,34.878439131606186,28.638242267868158,21.995262397703378,40.00672582511966,62.491697937686,112.95532489701506,47.10217161885477,27.292970362855186,46.86884269404042,108.1330220918389,52.30916459420602,110.56874511603486,29.5658213374517,8.040655177615417,2.2157053453438156,0.614996238539983,0.17138206945733836,0.04878248278873386,0.017391928474779716,0.01729774322253534,0.043387076597813115,0.1241674901576303,0.33087954266478736,0.7628623008192985,1.352366294295587,1.381901156879632,0.8391726562313094,0.5209042860126485,0.7484098247375073,2.2785321459222674,8.194701799717905,30.35662819149887,114.09440138469864,40.3508071081179,40.92812043268037,126.24962105211745,64.72147591968456,128.5094352369678,66.05104111378564,65.18699387053078,122.50535112278038,57.25430823211646,42.77116675429356,43.14440028427845,124.68577950628088,126.23722609303373,57.037574984921925,38.76369871533227,18.864846730092715,10.539487615809307,5.344751392403834,2.9100227300698807,1.538338999947886,0.8372886842286127,0.4585822341541751,0.26666321049517305,0.16698965586577613,0.10340789661223396,0.06260572246382368,0.0371754133149563,0.022323294200262335,0.013889803314695368,0.008887501606962382,0.005920950313107494,0.004261194617563813,0.003440679576093831,0.003154644267603656,0.003119550094574177,0.0031596196638862756,0.0032140234108525966,0.003295063162087512,0.0034721327980811127,0.003899109062913058,0.004872288883780194,0.0068780270096412965,0.010543833731207906,0.01636611175228228,0.024222034005946788,0.032866693882350764,0.039604536301701174,0.04448437779171183,0.049464942330283465,0.05695730877945821,0.06739236177187446,0.07242110531153018,0.05368949057710954,0.030596710547817686,0.014694553930946376,0.0064728912430080466,0.0034249829765572054,0.0046031701797268005,0.013975280067863676,0.050438732800569375,0.18627510378481138,0.6933947419475202,2.600911203269768,9.83465332581174,37.435551231654046,142.70243277161995,41.91037537552343,13.673436871920813,5.738794265390325,3.5158268414450142,2.8702815634249026,2.652845997991932,2.549399730056552,2.4699516227396208,2.370244931850286,2.178575184865716,1.7446036443261357,0.9418457781628513,0.4047900499081874,0.1518168396624933,0.05217544588493639,0.016900702063695358,0.005252501451604785,0.0015914038339473018,0.0004972862358677945,0.00023377069798209438,0.00034042315982185526,0.0008995919704002572,0.0025029240380001856,0.006634710822841065,0.016317274614939384,0.036312690481406215,0.07089430276816303,0.11846847819961621,0.18019636571203812,0.3415996605474621,0.933239521108427,3.044108242311193,9.698030098392234,25.73019721962868,25.6062066179339,12.265959846718875,4.48337390832905,1.4374966448169122,0.428522053197157,0.12228396726920765,0.03395212344762495,0.009261969365196937,0.002498860208816761,0.0006741727576881166,0.00019965813378908215,0.0001260771297565771,0.0002978242467039901,0.0010347527969073041,0.0037274484769784792,0.01345718350806039,0.048579405298668596,0.1754233388968532,0.63446653585929,2.3035779782669206,8.424481594385195,31.15029751377338
35.34675895770744,15.300602103991242,11.459295848615035,16.7218380224259,44.40071300062258,108.920429081104,115.77937497369923,105.8119928753498,35.243268541217056,38.84276353787831,111.19564754701778,53.624088597711,106.50950997920003,29.27497195343269,8.53126396819211,2.4973697017643675,0.7220210952046835,0.2057728085952027,0.058366078518499856,0.01792729773692173,0.010045572997232619,0.01725724653193469,0.04295284879097653,0.10211644003548004,0.2086699348122008,0.33092193465368613,0.341710784187231,0.249153468370845,0.23339247078459424,0.5139687807216926,1.7801774347622787,6.778943757206621,26.790573189636426,110.23495760398006,49.910446530856866,41.01702394769106,120.49062085938942,58.90215856996654,128.47165143994872,75.59303265394166,127.24509322313534,73.62333815250898,122.79748799547829,42.8286024368752,44.56313100749823,125.38699648253146,81.93695582680927,117.24049140270552,39.092838395217754,34.32353088856778,30.40130017892358,15.678312178431923,9.381946291668243,4.936118250195384,2.7537050137990517,1.5036139883631088,0.8934845697574947,0.5831080810181306,0.36101323510951666,0.2169622551576057,0.12730224046973826,0.0763641451258125,0.04810758367926271,0.030957479186563185,0.020681197125170074,0.014994503989907721,0.012263328092519593,0.011500544843548122,0.011558821625601652,0.011774532591800883,0.011964565098593236,0.012191691592623885,0.012685690784368764,0.013959439225689966,0.01706926632641898,0.023885012157086265,0.037041119502107055,0.058910649088691876,0.08956510612366964,0.12467056597482652,0.14977106737430823,0.16590714058037298,0.18195786031046884,0.2095505624697218,0.2574093467297319,0.2953487560853768,0.20511432716112302,0.10661106918606007,0.04658291939139425,0.018339630328290918,0.007312000723117771,0.005099560120999862,0.011357180407935348,0.039751696238722004,0.14805710613728837,0.5594306068271732,2.141925069611684,8.346931211934695,33.34159947459605,137.94932103704718,56.22622747459572,23.400698628196096,13.753614681626496,11.022720330205914,10.144911650070025,9.749736687518087,9.481581914665572,9.238731420072101,8.94539811663624,8.389376985425525,6.898222578242676,3.2365203766846826,1.2083087457790422,0.40134548015906973,0.12455267890173238,0.03703675615075952,0.010706412030222757,0.0030388024793760503,0.0008623740284628499,0.0002772330542164062,0.00018726482630879805,0.0003585018293677082,0.0009065774341875293,0.002247048607416216,0.005185195422586356,0.010904776144215598,0.020616286027903025,0.03566257335657405,0.06343111531580249,0.14174695562253514,0.3907254324560475,1.1254876356639585,2.9489631354762054,6.037794733405684,6.097631345919108,3.466546731106612,1.4935409397272137,0.5510705767445474,0.18475768097326872,0.05815712475178014,0.017529300510156255,0.005123739316561375,0.0014655976665854335,0.000416085275236084,0.00013018588315635496,8.889430657404334e-05,0.00021672497980225648,0.0007569912412912573,0.0027402454851006295,0.009966529867917186,0.036381865440509656,0.13355216143877316,0.4945595400790058,1.8561274938173533,7.106769773473047,28.008929370071716
29.87248648437403,10.1191186860188,8.095092697404912,22.47575688761441,100.75528507508595,49.466844091538725,54.194017431601324,52.55937856413345,39.51188447121906,39.74882244499467,107.94225123073892,51.730209465842165,40.09611870590451,31.04323643575232,11.374586976340197,3.515227801845596,1.0139878223285477,0.2828676083906947,0.07771388199014091,0.021760206431018198,0.007791150492003949,0.007157980805585896,0.014175916020814187,0.03019631394491562,0.0561189333647403,0.08278459462709828,0.08828814521922293,0.08064489902193545,0.1163282896023794,0.3218329540457756,1.109619924723093,3.908210119123121,13.372909585133018,42.3516556605301,107.85989052535218,34.772955863219686,35.01446351378925,39.7292032007765,125.8751299116368,131.79041014678035,154.85146022651736,69.19209657365991,124.38689243948562,46.83982886398114,56.018786841304326,124.57129477121956,122.75702098258495,67.34571062764387,44.22930936470099,117.58220002717263,121.86647039073249,48.941875207595885,32.76722459131227,15.942719195757125,9.245209160007208,4.915912112467933,3.007522138668556,2.0771610253759967,1.26260117786913,0.7508523329025556,0.43331162922005506,0.2604517524056117,0.16743407444850525,0.10806859270798394,0.07221424926144206,0.052761304104192865,0.04364424014556789,0.04202647507556383,0.04295830222368674,0.04396418916272414,0.04460714299628206,0.0452048305106938,0.04649088108981762,0.05010256918043899,0.05969885769195747,0.08232166010435027,0.1289072220356563,0.21049155715409232,0.3295873876725526,0.4758205284686306,0.5684441613889488,0.6192295380057491,0.6668245164824349,0.7609788589986719,0.9721644000514186,1.237147757309876,0.7750366471181916,0.35737245801602546,0.13985226290306813,0.04966997061222543,0.017007830912858644,0.007325009415219257,0.009316546020026545,0.02865715808653895,0.10288522997302375,0.373206723266547,1.3442773956384722,4.763409401588686,16.317793366940414,51.84195379501976,134.0969698068076,56.75091274103353,42.35947486596664,38.721968808093955,37.226731319271245,36.219080562380995,35.351623650346696,34.53545686639117,33.674035362469525,32.314066032808526,28.018834463019715,10.370745157923528,3.2071965679223142,0.9233946166111506,0.2567583912156286,0.07006074390890665,0.018910412099596187,0.005072624983623397,0.0013609224013168488,0.00037998877254469526,0.0001474309144468189,0.0001575767453096645,0.0003309901303410668,0.0007558079648823479,0.00164207316894694,0.003314484933397987,0.006236063898465483,0.011459560596122612,0.022980797203667667,0.05472552541589882,0.14387848234136463,0.3691290037403046,0.8324663453953561,1.4499766994101133,1.4752399930684572,0.9421482542744752,0.4602544221830736,0.19062819494988992,0.07079633114612773,0.024371799758048242,0.007942815544971067,0.002485568357429627,0.000754901198898382,0.00022655534398659884,7.647758333892032e-05,6.037784672907152e-05,0.00015664008424424807,0.0005502241859373544,0.0019905033244168565,0.007219884773832444,0.026193096037699017,0.09494822421627036,0.3432110493586187,1.2318576710851463,4.351080182564024,14.832443740936698
26.170502986889453,7.446530830342618,4.516384762181227,9.282325530769702,25.153011927481984,32.93133296144106,107.35850696023655,115.83837660663053,109.51983727696921,52.19603543013176,53.81310493985053,108.71879826069853,51.29375635463254,105.51374097883652,25.15779365225115,6.205422310640466,1.5638104285303123,0.399731137430277,0.10328939860063276,0.027128908367042605,0.007783142718186982,0.003723571788762554,0.004748352583407079,0.0087665942484592,0.015062756804227095,0.021378554524940398,0.024588593479072877,0.030099490939165342,0.062099413761971076,0.191080729227489,0.6474990404073825,2.1877874476759973,7.187018541508467,22.64217624871532,68.11094545306929,24.746357192485636,15.094001159349904,18.58346720926644,47.344147132016644,121.89215694769428,66.06243034736872,62.290888623447486,120.92608298995523,57.80469146622171,120.13846640512703,58.543129424396724,59.823591886990954,119.84744201587175,41.35510713817167,50.461107182065234,122.50336822933224,123.33924408509867,122.33680685285238,48.707763173027885,31.85891863801915,15.739127387768727,10.15857512440991,7.609734754700165,4.386580473826712,2.592238935168543,1.4612634495424253,0.8856006656392973,0.5879765178981732,0.3778057533513932,0.2517744016313055,0.1857148312282395,0.15481433360113106,0.15405576324058023,0.16020032747823085,0.1644451571645752,0.1665092732056812,0.16793926738543924,0.17095219606340423,0.18046623707516884,0.20869965054053663,0.2814388687414016,0.44358899545338826,0.7455440841276532,1.201647134288923,1.832221055775456,2.165843834485005,2.314201409582738,2.4387808415797205,2.7173336749884562,3.577450437270232,5.380336740604268,2.8505853402221257,1.1227347688888332,0.38548822939876365,0.12282009952913493,0.03774000472658942,0.012526119437430497,0.00855992821046572,0.019989476287461415,0.06739039234776824,0.23264710716061315,0.7871231793639153,2.5714544350185378,7.959797530437996,22.687638559323393,57.6554998213494,140.64833314523085,144.9303529650459,141.72288633311996,138.27442689508254,134.98639171714998,131.87362255864244,128.9483507654587,126.24929115898124,123.80214938593645,118.52997300914355,27.76191953991446,6.740730887220167,1.6750672603698908,0.422542307871982,0.10765890398745562,0.027622691674824316,0.007125612921451295,0.0018505466232701519,0.0004943462652880977,0.0001597551425177556,0.0001085375977023932,0.00016597863766685912,0.000314735882589865,0.0005969506928149499,0.0011039963887599007,0.002026051833369275,0.0038779291180284785,0.008268581894182087,0.01974691732782543,0.04869093243593681,0.1129415590411484,0.22672923374551351,0.35435912459118213,0.3616836588070479,0.2508483792887092,0.1352091441468628,0.06164783962559085,0.02502031119555953,0.00933452710541054,0.0032702246441922798,0.00109195408414694,0.00035168582538863257,0.00011186800644620673,4.174642616149664e-05,4.0255106217217395e-05,0.00011251349299680611,0.00039721046567176433,0.0014326655016307134,0.0051691794129616045,0.018608601795581624,0.06673303846253124,0.23790086077128952,0.8407273007708823,2.9354099098892537,10.100186774965909
10.812665199510246,3.8731785469662308,2.27435951457013,3.5487996073405954,7.949127997595199,15.60963478938909,44.18414906999443,113.38806761063182,74.18286462940861,110.09444791897614,54.02154471753401,112.0754661167338,53.43388018235572,110.13683392463075,27.85301164768972,6.995701981215736,1.763721300782585,0.4484193890600221,0.1151624638163361,0.029940702452417714,0.008055225661312787,0.00265195462539537,0.001824033442406533,0.0025921421582054136,0.004112458687222682,0.005835382239244151,0.007765370191108614,0.013264039372012652,0.035087972802792716,0.11505296714980491,0.39650614081771557,1.3839969850170146,4.919237967526476,18.20343783718406,72.45773776531422,30.50024067927493,12.219719040558104,9.33345176345561,17.714128723502377,38.410856870276184,57.34007628655317,117.56472182970111,59.90007270143341,58.923770538266865,119.41407214141431,46.725423483042825,57.79395889909229,118.59987999244603,33.592784266392044,21.32596769771486,33.95228740272377,49.211072463102745,122.13989518750367,122.1081343515387,117.4614121073111,47.501358451715376,34.59506646532202,29.036091904588375,14.854907975222433,8.954737354739567,4.856429467226656,3.003912273989574,2.0970186139498437,1.3190150078708966,0.8749115759467581,0.6549389480328076,0.5454711669923987,0.5672934432885558,0.599742742240543,0.615997153140815,0.6220640716877908,0.6249693045328563,0.6308167908299999,0.6530430066666333,0.7305939397346919,0.9540229063501348,1.5056437978156185,2.6175368178695155,4.302530278157876,7.150014837410176,8.280196380162888,8.661354243425954,8.934325448424694,9.526791912082114,12.39486780797725,24.616836908823377,9.825403884721464,3.1429625856960848,0.9275222450715459,0.2640223924372312,0.07408597848011245,0.021531774272308585,0.009527427517875869,0.015329379079995577,0.04882054066551115,0.16816234798544832,0.5743601383658699,1.9183964987206328,6.181898821345632,18.66858020913324,48.50005741673463,67.95964171934159,71.07803001949357,70.6394326616972,69.18652826885244,67.70085174400799,66.50554829369575,65.9697871178696,66.89745636316857,73.30627736535428,121.1519839063621,30.930068185199502,7.800201955114336,1.963735750516046,0.495769291658917,0.12572768046902083,0.032041221040442804,0.008207814246989908,0.00212239815156467,0.0005757870533959835,0.00020821607766922394,0.00016791506072008015,0.00024160821536782975,0.0003696780001750331,0.000520898716592994,0.0006864908729771919,0.0009383215949617908,0.0015133803844968997,0.003005847715570951,0.00679646422093488,0.0155786359052824,0.033100184325135534,0.060608373445394506,0.08776515558441822,0.08965445589393913,0.06604921850386934,0.03850422378380334,0.0190293874612329,0.008343169296228074,0.0033448270346631906,0.0012520511306251324,0.0004442456778711014,0.00015139166284026666,5.1220443140512316e-05,2.187786096663539e-05,2.689287141593014e-05,8.097530184760686e-05,0.00028785961346571243,0.0010390998067340554,0.0037539244067248513,0.013556296860297893,0.04894054399204599,0.17673377603570495,0.6391953628796044,2.3204652010347067,8.483677809694834
5.157557254455413,2.705515737374392,1.707794170932731,1.786984601108546,3.383321661359526,8.593198707303856,28.748685059709167,109.41545616995802,112.09483496987453,110.5224866324264,48.146249329643645,106.44499941303499,47.09722469813724,104.8004746910924,24.827740328040697,6.1520566281816444,1.5743960058894388,0.41190143233093446,0.1093252927849441,0.02929761686981478,0.007955554171876659,0.0023088968598903477,0.0009517512874313353,0.0008497665711440675,0.0011844709216594332,0.001755910032193215,0.0029042060563220047,0.006631402299009248,0.020111416532967642,0.06764296005083217,0.23248785233209138,0.8004503540818992,2.7409744414493176,9.201475041548385,28.995666761985635,73.57763007729166,18.39062064126817,7.483395607406742,11.196316575265833,33.51877926390731,122.002448671973,71.06972905508832,61.98586085067726,116.42378692053173,54.40271122749678,44.60138043335363,121.61485803207388,55.929112089084846,20.275750770019744,9.94962733510812,10.673316026192804,15.835008103290416,30.147526723869227,34.98629654808084,47.479399667008835,117.21254474989047,120.87437331121845,117.15684223228564,46.752038118179954,31.424847750819772,15.718663725088371,10.184424897121648,7.6712078839404185,4.5643541039773865,3.02374109814554,2.3235361140294497,1.8957802770318983,2.1044909872578135,2.2549655295356565,2.3097309477519814,2.324908699247392,2.328995697293908,2.3359362377171053,2.3763810723599397,2.567798074850847,3.206460831809096,5.018714067220673,9.151502747115945,14.84598287937865,28.48514131036484,31.703965365656195,32.439402222385404,32.97902569346037,33.11422454110229,36.648127589687775,120.1004130196373,28.342038473587202,6.982114615494668,1.7726602628971957,0.4597060315425939,0.12122169944454554,0.03305112019843269,0.011743483544485346,0.013638830009125033,0.042041124579854774,0.15314630172069593,0.5724788041252228,2.1826655975937577,8.544618689781927,34.641886457395806,146.71662275058353,147.53142973459055,142.9387527708768,141.84915134871727,138.504458312327,135.52664218434984,133.48902834165452,133.46736728489464,135.8593825368064,127.98607453665855,119.92074309103236,28.866303709806104,7.1666769077503005,1.8113759959531341,0.46261001109645294,0.11889666612730956,0.030689139851821777,0.007957653368480682,0.002100240985731977,0.00062976182585391,0.0003458392093815244,0.000449128473581034,0.0007460775936450061,0.0011408251864995099,0.001472272733590789,0.0015557285375484664,0.0014040064789273775,0.0012581838784201784,0.0014566597938118373,0.0024473843769305054,0.004884234449687175,0.00947253755898791,0.01605566701729985,0.021968979575993534,0.022428702468299387,0.01728825205676445,0.010737592590855022,0.00568109206177516,0.0026644900859128314,0.001139214675715399,0.000453009427024223,0.00017007718961426944,6.119803064135376e-05,2.2185128589965145e-05,1.1407425081873263e-05,1.8248959464121182e-05,5.8585833207192513e-05,0.00020987210654084792,0.0007601493185830548,0.0027589703603555565,0.01003471096743489,0.03662015259374184,0.13436588857128967,0.49724589943633274,1.864508123744547,7.130297832616361
5.105657347459435,5.4945644518919785,3.4799051725433174,2.081992167018423,1.9706186621495534,3.8175507333653584,10.299306410998707,25.827475784995116,28.808316792081833,27.436018606210574,17.88846521486645,25.212815169927516,17.90399390234032,24.15756081255231,10.160899001280422,3.514501453943995,1.1186966740414708,0.3392679062512017,0.09959024369257936,0.028564151809650235,0.008071585640242036,0.002294121074638722,0.000727810851147064,0.000370235059568223,0.0003886902393966359,0.0006114009759337017,0.0012725538156209539,0.003508751832753197,0.011306164045171738,0.03820552429012908,0.13032765904210147,0.4452428456929731,1.524683285539148,5.268771208671291,18.737157687759556,71.95829288016522,17.062979122352523,5.979984664450834,8.461595856778562,29.50305346592889,123.44392747935267,124.8653429781786,124.52157642701015,57.03346550337128,45.97702786968105,44.86528985750833,120.84661042498485,75.08418373996943,22.18298092953346,7.422729516721313,4.302973316034525,4.97813340657772,7.923960504340467,10.182718546068289,15.216144596770594,29.110801959609297,34.59073692330158,47.41218977388796,117.07563075075194,117.12364730691078,47.84628023536216,34.71276549971152,29.18144968859363,15.372160633907464,10.379644794919649,8.366756360966454,6.401183393911728,7.908906673690773,8.515828499963602,8.662514304588026,8.68866147875067,8.688159942266097,8.679423865818784,8.701509114925052,9.093352605201355,10.698229942432924,16.24867702658338,32.42678271822684,47.13672294063325,117.21088477974402,121.01905228102406,121.29206803176993,123.38620194884986,119.53140205138348,54.27926016940982,127.4541507966438,33.14429932166978,8.63502637078753,2.2666186852743664,0.6003318344765909,0.16048706644613428,0.04380976392925671,0.01424352354147849,0.012718992850414515,0.036641075083796534,0.13619553363364972,0.5247007870710134,2.060499592934765,8.26126126235637,33.921497094876145,143.1083798742995,79.81093543572368,51.5614332312273,42.503777834575494,40.24071851238536,43.01765083732202,56.13884919190429,95.61422401652902,178.73255573751422,88.25600698464821,44.98284645262693,15.180334074854466,4.52217978562823,1.275233306356006,0.349618112839357,0.09435316534656187,0.025239298574697634,0.0067487251263404395,0.0018916325684926027,0.0007567037066139749,0.0007879288791849786,0.0014349389777395935,0.002644903686421664,0.004256922791586232,0.005616183960903763,0.00577160113979544,0.004671804862633831,0.0031750566132849566,0.0020285427919493897,0.001546947797149142,0.0018068488569222356,0.0027951395618048937,0.004284111523423171,0.005564352385943747,0.005660527283099239,0.004513998777562983,0.0029519876427871725,0.0016550822326502086,0.0008234644817583563,0.0003729615066921495,0.0001567135661905372,6.201000214893854e-05,2.3534202803621304e-05,9.284872676051544e-06,6.132601470517877e-06,1.2607627079731191e-05,4.2418631390579136e-05,0.00015263787398912772,0.0005529536378678687,0.002005037469390547,0.00727284599021405,0.026379772031680505,0.09559550336195866,0.34540602142255505,1.2390398093798831,4.373115057073445
12.008311126869168,21.676308453974727,11.59508024541677,5.2544445663091235,2.5408474111540134,2.0421806197400327,3.4021268879225954,6.441775336932147,7.491571391410795,7.396842997888781,6.535708183416974,9.03943248932337,10.956362733424857,12.079997280600715,8.465591413145535,3.655356420160436,1.2840146781641892,0.4054190874422255,0.12038411130968021,0.034425464655265234,0.00961568678528661,0.0026564330965528835,0.0007507576852441037,0.00025514269572157055,0.00016603447921845741,0.0002512517683914059,0.0006109640287168198,0.001842390836717243,0.006011291615180525,0.01995636260266911,0.06602973193741549,0.21599577549469018,0.693111217421307,2.149311237180658,6.200215275735194,14.557658921267233,6.048976548230939,2.871937400167184,4.090220435025822,11.594018195534822,32.06532788689563,48.37547208071091,118.02577089123974,55.27840180300478,119.56070062970994,57.76672041703049,61.54665256151024,120.0352952194372,30.315221550490282,8.10079551965178,2.74366094671532,1.8068585158009132,2.235384349527574,2.9699096272178425,4.523947407937159,7.6453854876931615,10.147056495093764,15.649928736988606,31.487434204356816,47.19681556494321,119.5226048804623,121.06443817719173,117.33256411400241,48.10751521595413,35.51521067649844,31.096173862937896,20.235657051781246,30.431937161011497,32.26858449196717,32.460864901061896,32.45638592640251,32.431878611733225,32.35093790000445,32.059897146170236,32.59257849899931,35.64088919100371,49.348335431619844,122.02379359502848,118.33668726644999,48.29845733518677,35.66313571051933,33.39364944736407,33.710068738317524,35.05607949610708,42.04188057874384,127.19698569012918,34.434580289000145,9.417125602286378,2.5916936434848807,0.7151792235964514,0.19755910082641262,0.05507687338949477,0.01718890092471437,0.01179052846808704,0.028890799438860238,0.10268503792639236,0.3790307917324437,1.3943699105874485,5.040952196545392,17.517454975205197,55.60081218129251,136.66436977422472,44.11513334618786,21.371363915123087,17.418424090087647,26.199695135292703,64.71219195592022,205.34657188486088,752.6657208871017,177.83456518108966,46.53999456522655,12.710674501065535,3.5108344248086127,0.9682259437153142,0.26551219423712136,0.07236491453800706,0.019644761123461713,0.005403766246371724,0.001744125592269226,0.0012308989661523578,0.0021900913813747793,0.0047276728272498845,0.009431482755559155,0.016139623915692458,0.02219630710045012,0.022785889477686578,0.017680164943795214,0.01109180814670634,0.005992592547450403,0.002998910757092721,0.0016147713328922046,0.001207339431496048,0.0012895101754905394,0.001472495933146542,0.0014561100667893159,0.0011832256827270346,0.0008052522556548236,0.0004739492095805634,0.00024825306529494885,0.00011837631648860497,5.230046127791219e-05,2.1735054285203297e-05,8.712311355383994e-06,3.8573031922049464e-06,3.4956839854512666e-06,8.84557015316895e-06,3.0680454067423416e-05,0.0001105828681354705,0.0003998971652444822,0.0014454548279058108,0.005217555472778353,0.018790130244168472,0.06742133814622672,0.24055491635715612,0.8512096540387526,2.9781913880458735
32.831734903844506,100.95989489967045,39.15982327967346,15.308747574265539,5.977840618725371,2.4925586859982314,1.6294989598646854,1.9294779572643708,2.30249322156201,2.9177598062943444,4.889508398423246,11.531708849170885,26.714752728284743,28.9004687244816,24.897295776831648,8.668030975708898,2.524615887341004,0.6888478289282818,0.18286987206801122,0.04798883802697436,0.01254063731965951,0.003278033034147867,0.0008651594680431042,0.00024382895029863923,0.00010112217180113229,0.00011911112647945663,0.0002995877515713164,0.0009233375436529176,0.0029628322065250617,0.009491627773289584,0.029898594485032258,0.09159085791644547,0.26867700631334557,0.7337697212561568,1.7571638082037186,3.1384688234720515,1.8012838455986957,1.112442753295508,1.6137711576743687,3.9055073853585807,8.978549565775396,15.29639072795154,29.802101340414627,37.05047379370775,123.51427737694735,120.62767945345448,70.63128930760894,123.18388305032974,31.57225763431926,8.123161103983762,2.251338328804705,0.8839723919848668,0.7115774498062223,0.8774074597740326,1.3122447359413607,2.0905070635187473,2.996287822579247,4.852891948593101,9.002230173457143,15.047206997929388,29.58747744323302,35.028293732196104,48.532840133603585,120.42515587131648,123.50793018517899,122.45941908838124,53.48464789282636,122.1784747486298,122.20287638976606,121.37770468341368,121.15691056686927,121.09578790172631,120.9344277763045,118.71435736309263,118.76133205162057,121.20619127297019,122.1766527771035,121.83410949546345,45.49323978365575,18.580036254407297,11.267655199541077,9.696624203577676,10.42448153758414,15.05312560819766,35.71895811681701,126.67570483222435,36.849071119915564,10.841453310445715,3.15123834975209,0.9014907627908243,0.25461144152639537,0.07190347465658492,0.022022480149225938,0.011944477594533114,0.022228155154885486,0.07199310275340054,0.25242901480980795,0.8857368823120906,3.0726270311233383,10.541468378517143,36.31466846402575,132.1030354243914,55.09363315655205,24.190848219887535,16.698766977724752,32.049903928426346,100.58803552346343,319.0872944496143,766.4521271044478,179.54566864956155,43.71188125657719,11.032883941503588,2.8639263184425965,0.7577757368901459,0.20286419433005012,0.05467936652089744,0.014860587381693874,0.004284985636158972,0.0019384557725986723,0.002694473116656167,0.006394047615661457,0.015309523848825779,0.03307669610399093,0.06095303084655923,0.08863614524841791,0.0910672636820787,0.06753148717574456,0.03970303477570748,0.01983629358895397,0.008839152865064578,0.003675528951842224,0.0015446155187886518,0.0007731141648774763,0.000525002970655649,0.0004204115017630815,0.0003239929963550864,0.0002223509988341716,0.0001351077038833994,7.372838394216862e-05,3.674286566661933e-05,1.6977830703127715e-05,7.387550928985076e-06,3.1473078512744244e-06,1.6509511363428738e-06,2.1386290968158293e-06,6.28965578640783e-06,2.2235654725321945e-05,8.028171551178965e-05,0.0002903916575577437,0.001050238860021483,0.00379690177438179,0.013722115814325269,0.04958747891407706,0.17929248453540228,0.649471810449604,2.362426063704308
50.258633721595295,51.10221646311693,107.09521695868804,41.46037698088528,15.524890040934446,5.305831917659298,1.9528302280029153,1.2031002252273837,1.476150174402551,2.917714219892031,8.351873551657274,28.546559478993945,108.89997606263114,109.71076656117249,103.34968354765385,20.930917769920313,4.5068018412446555,1.0201821267184505,0.23999845414313103,0.05809705411891023,0.01436126607154822,0.003605968320631705,0.0009183371385680158,0.00024154936622602835,7.775847481024053e-05,6.270506711288527e-05,0.0001441138105787045,0.00043521446710388526,0.0013507363070273456,0.004131977345511081,0.012279349283043046,0.03497377120560483,0.09359024128616433,0.22746627583921808,0.47052902875890945,0.7147063657626643,0.5078149485936758,0.38766411633279996,0.574456372366304,1.2467053931668988,2.604071394446621,4.622221380808303,8.439972629588738,13.70806224187979,32.322917487618895,47.69580154498925,118.42952078035918,118.26850403521495,27.811280101111777,6.814575141126824,1.7572355301442801,0.5340600574973602,0.27270049755086073,0.27071294567877024,0.38160648441822503,0.5891243348987149,0.8872714282698719,1.4689049585336094,2.6258478898635547,4.496718805942948,7.9267590488103625,10.985006639148317,18.411027084106543,39.98754173966035,67.2923147179723,120.82717086446101,56.03433646816589,118.30135192577728,48.98647570355081,35.78784046822615,33.145907949670246,32.57460686401845,32.35497864735314,31.92937998432288,31.923504839803137,32.28540373909968,32.00302562490698,29.217283162931984,14.20860568561377,6.4208652080602,3.6661350287421635,3.093959036976769,4.0870706754119865,9.119234498677741,30.543037681736216,122.50080784327318,49.14268828782322,15.631284790720253,4.572792381791123,1.287915561870009,0.3567153108845505,0.09971005287439351,0.031098027719523223,0.01562570179500023,0.020540551142519046,0.054616408629317506,0.17781331206091305,0.5949953373519492,1.967604729365405,6.344059800748578,19.64269479995344,56.30760271253312,130.15278194884556,51.981325269925335,26.533425627946997,48.812925934077214,187.6788228068197,842.1370321849139,297.64963539917323,89.27543835525483,25.152740383171484,6.910821572936212,1.882063807453233,0.5116379648529146,0.13921786833213612,0.03798650287563357,0.010554411009645125,0.003507104416289561,0.0029071502905076707,0.0066034363455245194,0.01817019734711202,0.04765872654605241,0.11276613917300143,0.22786571981125409,0.35760026986141946,0.3674500601906232,0.256738459652886,0.13975861974284004,0.06448298134550136,0.026524183892498554,0.010054633994307909,0.0036117105645161623,0.0012795563243300182,0.00048399622414679443,0.0002173629767784377,0.00011796979480623092,6.975303711172033e-05,4.06176309434928e-05,2.2266668808044218e-05,1.1374662865814653e-05,5.436106345249699e-06,2.4651127343050193e-06,1.1330336869346039e-06,7.624666777620425e-07,1.3954836726930069e-06,4.518080743140251e-06,1.6162102986310803e-05,5.848011265220184e-05,0.0002119322045687077,0.0007686849002835543,0.0027915004991656356,0.010158183953324306,0.03708893498850813,0.13614070149157648,0.503902660419161,1.8889355765401654
106.61606063881602,48.29955319874786,111.21281932121556,110.83340731142366,40.40529072833674,11.8647125510202,3.5785502652661254,1.860142991694466,2.4335933797338813,4.760501786998017,13.757459212634418,42.495798410504406,106.83930293952942,43.63390134987574,27.467721360419677,9.060990254914483,2.5650952634881685,0.6854446359946357,0.17884167195341433,0.04623376647180777,0.011923936670087884,0.0030781736795261272,0.0007973456765072574,0.00020937163367927471,6.117424372139733e-05,3.5246990808909996e-05,6.717557768414011e-05,0.00019309914136434402,0.0005743938230240456,0.001670150709706513,0.004671752662110105,0.012382178747976149,0.03042439435881745,0.06690866373407808,0.12383772274785594,0.17142539375134946,0.1432353638678951,0.131270623741312,0.198597567023757,0.3961972068298879,0.7769520269291289,1.3928935328629204,2.5074508144297054,4.435009540363359,9.019363761897024,14.794691548502932,27.84195498923818,27.12669978057449,10.21234379600962,3.1957741115211213,0.9434396534367926,0.29045192530415354,0.11985253232281186,0.09256323232950334,0.11755688999050454,0.17536103318544505,0.26931145360766073,0.44741848447512966,0.7872334012476288,1.3804988990543876,2.491351404537896,4.543959969776887,10.960773992227033,33.79675276456682,119.43124551853353,57.0138809481611,43.5928481259307,35.18756128339463,17.626785437535332,11.216954472722211,9.356089798907622,8.850966685360987,8.691457259473058,8.583439055688375,8.56491326377569,8.57970069691778,8.338814070306755,7.257958171607744,4.120245959034695,2.0704142795979696,1.2143307278749378,1.1139243141287918,1.8847489792332706,5.03217302672059,15.919225631649368,49.10604014513243,119.8749659730303,29.23077476426147,7.36631558840439,1.8964949157535573,0.4980548090365051,0.13854350398570242,0.049229931498519675,0.03017115431342602,0.030773041275911062,0.05735148581907237,0.16483911157440395,0.5388171003732869,1.7939462069685632,5.912590896655481,18.889837822413185,55.94710410200828,133.3476643282325,131.010895822872,41.70753558595467,46.615403241270236,134.53494319846394,169.7767623030156,88.0332147504231,33.30458569962274,11.018301114260689,3.3972413054889685,1.0059969884876763,0.2907703764419732,0.08281854793421849,0.02346737139112275,0.0069722713842537394,0.003296079561425601,0.005393905208633271,0.015848797318871257,0.04836497357543375,0.13970649890737527,0.3679956925767113,0.8358748789865444,1.461649693918222,1.4992943679473552,0.9656905908081084,0.47762724268294543,0.20077879084871558,0.0757683351501175,0.026516380556990515,0.008791457549670395,0.002808516992439677,0.0008820550731166621,0.0002818003399545194,9.670975859214109e-05,3.757979808642672e-05,1.657837585779284e-05,7.879335096789245e-06,3.8023363749746842e-06,1.7990317682508171e-06,8.339854446607372e-07,4.2331485826613695e-07,3.953315706017711e-07,9.537255184399192e-07,3.2612420134298676e-06,1.1738769797200778e-05,4.250465284640294e-05,0.0001540365569187465,0.000558437837945499,0.002025232367004164,0.007346552417946808,0.026647245572070967,0.09656012900638766,0.34886787403362046,1.2514938323991942
26.803733022352162,20.866222769338663,42.58869637647195,109.66779465822344,104.20873446664214,21.89860239485904,5.793615820879173,3.9456140799394075,6.504765325308254,9.454243909727772,26.936581526646805,105.8314688318687,43.81093591534183,17.78561723813286,8.761753010073988,3.4022071356587453,1.137334848775237,0.3485487538077807,0.10137317511091154,0.02853993608843417,0.007870413797645196,0.0021417914099299187,0.0005781916072701268,0.00015616051562096522,4.466836302995878e-05,2.0427056335037268e-05,3.05935233528822e-05,8.181098037399315e-05,0.00023237678004607134,0.0006427804275938472,0.0016988372319349234,0.004223154261324504,0.009665282384686133,0.019723589458577016,0.03416325024279869,0.046772910129681385,0.04890121712103329,0.058126695223419955,0.08966119920503832,0.1549282538595429,0.26855002743534373,0.4507369750103863,0.7768291837632156,1.375180423973637,2.563563994896961,4.211028994893131,6.700817825992482,6.437395862984195,3.1403087828503367,1.204286078553492,0.41717635365120104,0.14535930856795665,0.06339953875235357,0.04725702598493338,0.055810590009853896,0.07617352061579011,0.10581777571551793,0.15906109346187924,0.26963513409270157,0.507689782597852,1.0968905095857393,2.826627782748084,9.012904134911953,32.40095533698005,122.36219725714068,58.2320211800414,113.32131005586264,31.604382211124495,10.369721165544366,4.531011131664167,2.9227096856922934,2.4836461897668003,2.3593591684358515,2.3148838265586247,2.302834990244853,2.2890731083245637,2.192199928408021,1.8714058373730336,1.184497617388688,0.6670437826179862,0.4355107447807024,0.4905071406877749,1.0753258591382553,3.269829050763168,10.834102936306973,36.3412414228418,123.85328570460108,32.51208223341386,8.497831468620191,2.22668353521044,0.5965751235952204,0.1842662305047964,0.0955669029724664,0.08539825131112518,0.07657505638044897,0.09388035343480172,0.21505277119315136,0.6791219463448053,2.3446645154172066,8.447701549802563,31.836637135861913,127.13751974887087,72.26580086636642,124.95176147021157,46.085488823638826,54.637014729125625,118.05332021562205,55.97832586338478,27.468305100726973,11.500559977797849,4.255239297280947,1.448328157249237,0.4659064415418839,0.14416875737702986,0.043455671440078905,0.013026906152630722,0.00451576634332896,0.0039031963593770327,0.010311404080995101,0.03473046878363602,0.11646434787924403,0.37421960074605415,1.1196266383933469,2.95773816761308,6.077128646714014,6.200975862767178,3.5604834745654643,1.559535454698009,0.5867941859137293,0.2007906556025003,0.06448385664784728,0.01981213718407602,0.005898033007520988,0.0017180168821589819,0.0004946742312398756,0.0001429086187056695,4.243761695690605e-05,1.3393491020048286e-05,4.628629539923734e-06,1.7609885189933916e-06,7.217624446197818e-07,3.1645330714244943e-07,1.7753844739970992e-07,2.324823691425279e-07,6.702958539148687e-07,2.3568760217982604e-06,8.504620937061058e-06,3.0772477710268576e-05,0.00011134464615186943,0.0004026732034665295,0.0014549034469670422,0.005248652615281413,0.018887857019583246,0.06770495294105812,0.2412506223769802,0.8521549918450457
7.176412474409831,7.505354018460006,13.785341510054055,26.46564108291968,24.77982839073758,9.52455153061273,5.33892818521046,9.515160341754555,23.195140582448463,18.52361481941356,32.57631720564993,109.47195016328854,32.409226482520054,10.507113153505609,3.9149723262326526,1.453164700188766,0.5081579396967281,0.1671398629659001,0.05230868881584003,0.015762261150240528,0.004616818617419213,0.0013239693751380618,0.00037385204156262014,0.00010473148974643112,3.0248362502352902e-05,1.2053460818472644e-05,1.4147525724122654e-05,3.4796437480661395e-05,9.527544928454197e-05,0.0002553178438755761,0.0006553360405810841,0.001592627203349825,0.003620556229397833,0.007604340389899192,0.014645279120677791,0.026147599662906862,0.045272333505203294,0.07892713127313612,0.12631467912351016,0.17516108968698751,0.22868290881300427,0.2661491060008381,0.32760688916556546,0.47567982481828547,0.7758107886179744,1.2071005999664153,1.7145271088393885,1.6565487884878654,0.9878269595547114,0.47245722329829254,0.20997308134896522,0.10112803370003173,0.06792836563841959,0.0717687948178895,0.09387610346789539,0.12005172478392379,0.1303605866077775,0.13149516648792625,0.16382652724884939,0.2991141528542841,0.7556740876306037,2.306012082213926,7.889067697516561,29.233877865260855,117.29615147000037,56.69473881908403,117.21170937670564,30.74770076194536,8.456148212942207,2.6766814660261344,1.16551099381517,0.7688415991116712,0.6661677348166273,0.6436697449826698,0.6481397428102429,0.6597030343767292,0.6539065544437765,0.5937793068337485,0.4482901253064154,0.31184005394055814,0.24118281750351603,0.3182819260789004,0.8068699841453189,2.677372482413189,9.474321512587517,34.25401975101031,126.25761497766479,33.490601463000424,8.881907454692461,2.369199703293673,0.6704461668195805,0.27491185247538935,0.25450700452035707,0.3100763942004097,0.2493986922608559,0.2143028072161377,0.3524752158048972,0.9761972910851876,3.147217389387308,10.59231675088078,36.54476369408489,129.96472736606952,48.157859650883566,45.32054346505309,55.216621156541066,117.06787609422265,47.95815880791461,20.571567560944082,9.297730012756112,3.9752297691564373,1.564246534377909,0.5715818991836241,0.19694474613735985,0.06488005483824327,0.020719817176594386,0.006722627741253729,0.00319222416371227,0.005295928170512535,0.01784085413432429,0.06575826342270572,0.24147104417034015,0.8695201192963586,3.0178063694242376,9.713798841584575,25.84240815598561,26.068948687376235,12.636698939119492,4.732307825025915,1.5596602143331517,0.4776975559033077,0.13978396654351682,0.03969947589941746,0.011049526986451253,0.003033338981076367,0.0008253195466200829,0.00022363010544509439,6.0743793929291814e-05,1.6716323765667102e-05,4.7379626037114824e-06,1.4132027544421498e-06,4.54101073332033e-07,1.6543350617446778e-07,9.298014984714525e-08,1.517283429388176e-07,4.786912141085051e-07,1.705097326383771e-06,6.159602093098736e-06,2.228094632627807e-05,8.058563881567209e-05,0.00029135328973476634,0.0010528624960501466,0.003802602807191381,0.013726290989088995,0.04953110924339765,0.1787759154421571,0.64621847449742
2.2403050414328383,3.204147356957491,6.152357582472691,10.560881938503037,8.480043264250936,5.129950212869309,7.200241418016312,24.611279202929,104.62730300821441,45.91598721865521,40.52575672455072,110.14595479846034,30.66535966298438,8.93286287414809,2.767803093627551,0.89365079954447,0.2913082262504655,0.09382379547505185,0.029576833667988068,0.009108123379749748,0.002744267381491493,0.0008113541819166202,0.00023621977722110136,6.812801879264849e-05,2.003686141925488e-05,7.497820349323045e-06,7.441732692719678e-06,1.7544669501310616e-05,4.916163430494299e-05,0.00013851514579398357,0.0003852339643261812,0.001056716688795527,0.0028610873984518483,0.007636617530742515,0.019956484428462,0.05019507522187872,0.1176580529741435,0.24384907978668335,0.41413865457589905,0.5410406963258678,0.6622372297548562,0.5898678630160727,0.44698322041105376,0.37548084715253593,0.40852031202618494,0.5412367074479983,0.7226954385895679,0.7995427995488988,0.6576469626917746,0.432657220332587,0.269076877444266,0.18350744664484897,0.17127382656024273,0.22155127381608875,0.31562551119570514,0.41990013801207976,0.42479885265929707,0.3357227916090514,0.2827147100581845,0.36749451964839974,0.832027781129673,2.3647029253883076,6.781612102712643,17.817092687068147,38.01282696982479,47.42855088775677,112.12360039039824,27.21396477089984,6.94278588413738,1.9074184577352646,0.624833212060921,0.2977246762714299,0.2251358963695718,0.23282716571052414,0.28263068725720564,0.3670988006817922,0.4777570570441605,0.5890733238792655,0.5996237736754981,0.5145235982154313,0.3814641802209352,0.37113161413679263,0.7702396372415681,2.513214346983134,9.08043390579463,33.450940592967775,123.9784781785701,33.29200411223144,8.933812093240483,2.4361610630395583,0.7819903215532005,0.5402517130076022,0.8464868774738772,1.2711544171101203,0.895437895768139,0.5900625817962714,0.7092984253349066,1.6783691949741144,4.970125778940672,15.414217872009932,46.87490091169717,123.4094482516453,41.39608620781239,43.59701851268239,122.82581855633181,119.52954196291715,32.056188976698856,10.195190681609002,3.7712776457091786,1.4888420900067552,0.5834282406464462,0.21997195733723857,0.07930008126040793,0.02744700833847552,0.009260549039990434,0.003396818954584996,0.002619022727178397,0.006839294365661619,0.0256795291317324,0.10050721344793384,0.39708353442373256,1.5836237014375198,6.403892617271147,26.464840356484533,113.19457276023884,111.73360916638515,41.45845364774935,12.637952342004837,3.5611617191559586,0.9659504989406772,0.2568229108105285,0.06755122468246068,0.017666314030692708,0.004607170471227885,0.001200273961959161,0.0003128086734155223,8.167871740808338e-05,2.1422695040951035e-05,5.669619562235911e-06,1.526164330615993e-06,4.2420773475579887e-07,1.29066506725179e-07,6.318060256987622e-08,1.0621632453472755e-07,3.4502576141357325e-07,1.2354146292971248e-06,4.466947968869521e-06,1.6167959338629027e-05,5.8534950681118686e-05,0.00021199840007625007,0.0007683154324076909,0.0027878107427277326,0.010136176864361687,0.036979496088081695,0.1356552865351448,0.5019731702951128
1.3068505878327275,3.3268674993794147,9.363774689321563,22.267249701374926,10.409599043395694,5.574865064335878,8.1212909070891,26.324970449588747,109.72620583328033,111.81924875975263,54.51628112453885,111.08397493042413,32.50411382277782,9.656901334771009,2.8653325618400918,0.8496287772000379,0.2522168227865431,0.07491784996595748,0.022220394337286772,0.006565378078778401,0.0019293081098633764,0.0005636685576490656,0.00016398442105471927,4.777998436910357e-05,1.4346966871204854e-05,5.454867165491069e-06,5.460380581561756e-06,1.3868212529539645e-05,4.363454124982177e-05,0.00014137743225720124,0.0004608359107864924,0.0015013515666453077,0.004852633941775214,0.015397792967642057,0.047261934697472974,0.13740831426576003,0.3666318293310956,0.8523706398969215,1.573627472219333,1.9947072039374647,2.6138319103741923,2.163837621929688,1.3889437231321484,0.9217017256596916,0.7585935289386013,0.9091038941058219,1.2808660157011222,1.7603656075241854,1.7258547967144504,1.1967622585611895,0.7883235163391948,0.5595659421645534,0.5546558732620992,0.7706395103226951,1.158425551878167,1.6589247394335527,1.6628095997268741,1.1753280204489007,0.8292444218428067,0.7911104738482568,1.5042951541107272,4.268565586273607,12.61880930630284,32.874239184610595,45.535166774123496,77.7401391472336,39.62338121100948,13.46970158891807,4.07918386324697,1.2002101841871533,0.37834514454366186,0.1675373500864156,0.15409580141884968,0.24552666565369785,0.4477184143406748,0.7825020254126579,1.256463663260129,1.8632798057221864,2.045855594651877,1.7942135814555968,1.1619470514698715,0.7568039412793521,0.9302218781841638,2.5512400564494184,9.044126982229356,33.39271172243165,123.98842450759113,33.34913293857763,8.99279992947945,2.5319642601499934,1.0450829864524613,1.3381212265431466,3.0130081302051845,5.574925335218297,3.2620116834415875,1.721336362458445,1.634883559434157,3.4145936744839203,9.580950217272683,30.04796379054097,105.88097565244287,51.77000299529093,33.21219083166308,52.03966284689705,116.43513266047279,44.778106928357076,14.654242407752387,4.772109906301897,1.645903089883204,0.6031168845284698,0.22750886215677485,0.08552152293295319,0.03143677574937363,0.011241364892211489,0.003999649770287701,0.001778714219087416,0.002285798879111496,0.007441286164546386,0.02888981284247466,0.11452195370943233,0.4568992474866019,1.8312459376338803,7.357085276280594,29.476777919812633,116.46006158700712,76.40352666883885,111.74246143898664,26.07579086009779,6.2034072596570855,1.5000208077742692,0.36765177469651633,0.09111864735412545,0.022789962044016444,0.005743095853639076,0.0014563450804914767,0.00037126925568079536,9.50971420627351e-05,2.447150950971981e-05,6.330895398136959e-06,1.6499559322620988e-06,4.3591449786158825e-07,1.215771968509312e-07,5.08206343122056e-08,7.736324028609823e-08,2.4983240054108224e-07,8.954167191158852e-07,3.238711752192239e-06,1.1724911055507902e-05,4.245770585616091e-05,0.0001537867276339244,0.0005572209555920163,0.002019769352405636,0.0073234633662717,0.026554403885586053,0.0962031373855172,0.34754801110464784
1.6218794951481241,6.086432362164707,24.436173352702355,103.26924253702927,26.135436230412424,9.788350222661165,9.627668510593681,15.491046754234038,42.259535820811905,108.36127068545002,63.66870633250566,109.58901384689153,43.618447008487415,13.639098749860057,3.9176621654419543,1.0865724790291234,0.29744608330279776,0.08124608719686315,0.02226230431099669,0.006134442645770507,0.001702534641261299,0.0004773646330596775,0.00013623820708904514,4.0220499496048836e-05,1.2810088273379603e-05,5.4240351908567645e-06,5.997471101620145e-06,1.6569683844543733e-05,5.739996840724679e-05,0.0002052789957129099,0.0007370525014902645,0.0026379228585146127,0.00935557171791207,0.03263557163586164,0.11080901652297379,0.3603610463441129,1.0923539688497492,2.9301154580444178,6.180548334905714,7.239743144705398,10.862209406623146,8.390382235055716,4.801139770792457,3.007192254734864,2.3122352418399092,2.8739271125472095,4.293031153987159,6.755930033180642,6.740353951509553,4.233738017980905,2.704536019865161,1.8309088167411782,1.8264559605251045,2.6892043629798157,4.20536355031705,6.712413146984195,6.717805985819494,4.224191309514671,2.726313326701498,2.0456287474876076,3.134067083412827,9.123586131839769,31.78843896422019,121.27436634016912,124.583795343072,124.41302221968989,34.40684613950697,9.901679688352127,2.86240552223922,0.8363136395970241,0.2774901209274815,0.1750584782845523,0.286374896403413,0.6385186124521387,1.3756511077204874,2.6237312741933514,4.41524309138177,7.288286252541846,8.018016407057981,7.0429552443964,4.039200605863345,2.0775231038852846,1.5030476341346453,2.8198771312998585,9.240376208700443,33.87277825180164,126.42780261521214,33.82156908216379,9.141890284908587,2.7177415819284914,1.6184221104684273,3.430384529593632,10.318515341995788,25.90337778055289,11.380370507204645,4.841060350078655,3.9640728943276713,7.593359075222569,19.05301805967054,49.41163900152034,123.09505043386456,48.11740323599435,54.06739293997814,118.99363507656409,47.57385338491469,18.04972453900017,6.319048635156503,2.1373232585667896,0.728914102759679,0.2564472651240853,0.09298652483278014,0.03421154235433208,0.01255768541066924,0.004564755495132088,0.0017172704704368695,0.0009900177105403043,0.0018757701638567794,0.00663281090003054,0.025696108049136836,0.1008354484795836,0.39854405915256597,1.589867400598567,6.430595182965903,26.578680299103556,113.67386314526442,118.48502782065427,113.32936694914122,25.870924119938195,6.083470170914499,1.4631153133513364,0.357948282240175,0.08871892270175921,0.022211715025641426,0.0056050975260986515,0.0014234314116698282,0.00036336463811503805,9.316336977781205e-05,2.3978324556495767e-05,6.194287384603935e-06,1.6067613669580538e-06,4.197461233007009e-07,1.1366154220661445e-07,4.280276616632797e-08,5.731008232857399e-08,1.811886824309367e-07,6.485415326648648e-07,2.344994769660127e-06,8.485089386065228e-06,3.0699645766414516e-05,0.00011104330427911917,0.00040145422110484654,0.0014501210498423704,0.005230430095276831,0.01882032647364574,0.06746112278772455,0.24038967543947
1.846864851545684,7.133673825758349,27.89759052769859,108.88078601386115,33.34542557938842,17.392131530625015,24.36532317957779,14.734105744409895,19.97869165190703,45.44460476001251,109.54567233815357,64.46485798472983,105.97845563139511,24.64158199045997,5.914969201922458,1.4546978482299502,0.3646411108042571,0.092850285601427,0.02397290168605973,0.006276438843586651,0.0016740924588742336,0.00046174639235865584,0.00013585968892382524,4.449471724476473e-05,1.686902808216717e-05,8.281784604649776e-06,8.530726992758619e-06,2.215245102885583e-05,7.891658963620538e-05,0.000295844072122747,0.0011182772439275715,0.004233561365040035,0.016007301871320954,0.060251048606641947,0.22459554646039526,0.8215949784261944,2.8970154793788696,9.455419804614124,25.33980393446513,24.400993922766062,46.92929914960357,32.515106610989015,16.02032041183201,10.00807679011713,7.233698554818783,9.72919238535037,14.847463762493982,27.741829486062958,27.726600861181325,14.76077587794953,9.374245768129686,5.894894977892251,5.883966710167535,9.332767156714043,14.672138240060125,27.692384606335075,27.707421858691223,14.725700524118139,9.258815481363905,5.622281600963065,6.130892467038855,15.550445157131993,47.71387200700941,120.70860534210776,71.68338754647402,123.44279227653021,32.5029937179903,8.671124879448506,2.357255942239201,0.6777760102282904,0.2752234631396507,0.3189485022900038,0.7505764862649376,1.9235590049352338,4.54393834533676,9.168991420645193,15.322977358295297,29.433178211089142,31.73100135075777,28.40630087200148,13.95277823542852,6.166086442034367,3.1906636914385658,3.624598888514646,9.705474886871809,34.17577896446565,126.61661545638309,34.01058865428437,9.319231115879795,3.014172836043941,2.51732356483598,7.307248498554431,29.56432161162303,128.14645549889863,34.27577322915474,11.980582336481167,9.715134381230643,19.12846982285329,47.732160064007644,124.27380172504597,61.56533450642067,59.7719730468325,124.08112849564736,119.78246944454008,31.96462803345111,9.627338285572755,3.0730016056196696,1.00386690718266,0.3338110029839954,0.11366607862358287,0.039751479361488595,0.014203520949589927,0.005133038865177642,0.001872212197474929,0.0007491998466611239,0.0005683514098607617,0.0013459934934583356,0.004783701022643236,0.017818576072732236,0.06625056996636651,0.2436622583506432,0.8788192238390514,3.0579381218127066,9.890845546578372,26.64579571950667,29.853688367223857,26.559212908721435,9.736916739475657,2.963374332540376,0.8372526191790755,0.22820368269143843,0.061034891590613455,0.016156307881974256,0.004252342865641583,0.001115781225313804,0.00029232379156179315,7.654011393260342e-05,2.0040780666838822e-05,5.249742986032833e-06,1.3765787615815885e-06,3.6213933277794904e-07,9.784316692172679e-08,3.5024338150573796e-08,4.250580508808106e-08,1.3144807905109932e-07,4.696490247822395e-07,1.6976259470384331e-06,6.140984724808823e-06,2.221177507714179e-05,8.031923116952951e-05,0.0002903400169155736,0.0010490726302669093,0.003788669681901181,0.01367600207328701,0.04935359742771434,0.17816943127303744
