-0.037983376062095196,-0.02662477710420253,-0.01539422173262478,-0.007730900598101278,-0.0024706013738481124,0.0,-58.50519426322436,-101.95613136703865,-120.09123963994358,-107.56918752494342,-72.17308248545756,-37.73100624068426,-13.800930731038193,0.0,-6902.521109085289,-9099.660276139517,-8023.655775065408,-5982.010546175126,-4076.572052525169,-2601.1954049786227,-1527.8197600894055,-702.0233026117098,0.0,0.0,0.0,0.0,0.0,0.0,0.0,0.0,0.0,0.0,0.0,0.0,0.0,0.0,-0.41924381079934386,-0.4828153947893323,-0.4024662357750397,-0.29942954286173773,-0.2115139219807218,-0.14447098122004032,-0.09511140778871895,-0.05917925829318581,-0.03337268412492666,-0.014471905157121946,0.0,-3.255223231780223e-11,-1.0708885290052095e-11,-3.5582882077874377e-12,0.0,-26.3003757711417,-55.61031392263188,-86.8927846600494,-119.28387929975023,-151.80512718709187,-182.85093750089553,-209.8244293837793,-228.980513749883,-235.5911108799867,-224.5481918742154,-191.77387331140702,-139.49534648699358,-104.08910451987504,-52.62408784607981,0.0,-115.35832506891111,-228.70541041329483,-335.6322663521745,-429.003656811319,-501.6115764411477,-547.7805171653393,-563.9814789788805,-548.7431292942938,-502.0336365756555,-424.0633407294647,-316.16193988679345,-183.43548126280325,-49.15914363024858,-13.201093258191088,0.0,-1.3807125712324362,-3.848533860356466,-10.707406771023608,-7.220061073144067,-4.110757624450923,-2.1623196668431905,-0.9623453340901855,-0.4665094174960431,-0.2107483659774761,0.0,0.0,0.0,-101961.51644067859,-169807.11219503212,-205840.8523485484,-220432.1458635409,-218973.56527709335,-206590.1979907332,-186846.5041862185,-162513.35490250567,-136414.17406391245,-111260.93401181494,-88938.79802664333,-70270.85793463603,-55047.58566792205,-42553.744827694354,-31981.083928685817,-22713.346542522544,-14363.06653958287,-6776.062967039577,0.0,-6.181727892266047e-14,-7.830493326674388e-14,-5.1396602856559516e-14,0.0,-1.4383027040108185,0.0,-138.47562539458374,-479.6934468543792,-997.1129821106839,-2113.322956479361,-3657.9997959028456,-5448.074349568089,-7102.191143420128,-8222.580982012607,-8523.256577199865,-7920.749563317318,-6556.105409730475,-4781.039057348262,-3047.7542710702714,-1442.5218720773503,0.0,-490.2477275599466,-960.5195555036141,-1684.935831019396,-2243.7047488865423,-2551.4413565272207,-2613.2334974690307,-2463.552590337128,-2144.912854908838,-1697.4489312547519,-1153.10633124169,-544.308344821825,0.0,0.0,0.0,0.0,0.0,0.0,0.0,0.0,0.0,0.0,0.0,0.0,-293.46612841608146,-737.1312676064019,-1268.3358837736776,-1938.1755786039262,-2819.1422210010765,-3947.795468568672,-5212.560886633239,-6481.362215442674,-7551.50103469953
-0.04971437663631751,-0.030972011300270098,-0.013125412812053035,-0.006135418215318701,-0.0021515048972917034,0.0,-98.68332875737754,-170.63016401360932,-199.98710795178468,-171.07831562688912,-92.49957104805996,-32.55764432218606,0.0,0.0,-18510.42416020164,-18073.647803529817,-13428.152842520656,-8911.088807347534,-5622.990041498814,-3393.318539795023,-1881.0628851744516,-819.3124296674323,0.0,0.0,0.0,0.0,0.0,0.0,0.0,0.0,0.0,0.0,0.0,0.0,0.0,0.0,-1.1941598484080433,-0.9345862704535239,-0.610574351720735,-0.3867057987466269,-0.2447121520615541,-0.15437651273939212,-0.09507142169211935,-0.054991788028316085,-0.028909751059870138,-0.01084541405424802,0.0,-1.0749869397575155e-11,-6.725020634618715e-12,-2.5708272106015384e-12,0.0,-17.236548760792076,-42.6458192720266,-69.27162153150498,-95.48685734904439,-120.17388834872024,-141.75735689286242,-157.96503625951115,-165.77754030749702,-161.44329197080623,-140.17942481109404,-93.90871299308492,0.0,-27.890591521948107,0.0,0.0,-94.94500267199054,-181.1076975247243,-259.26992179933944,-325.37665299272356,-374.6942294275335,-403.46498957637215,-409.5585178425258,-392.456426228403,-352.94638214378784,-289.5300845926885,-202.66452808256076,-96.52500233634099,0.0,0.0,-0.6224472523741911,-1.6743164245732785,-3.306016099169819,-5.462254016644097,-4.751580999404323,-3.3374933741206685,-2.104806696196914,-1.220552252021508,-0.6929439699165107,-0.3764840464138613,-0.1739659352754775,-0.07609567985621515,0.0,0.0,-67442.66919435332,-99963.56458238115,-126570.73678662286,-137671.55554021883,-138849.93224237976,-131857.26072001882,-119332.79680691879,-103543.11027683817,-86682.4998431283,-70618.43534812266,-56671.94334896011,-44788.11525283225,-34582.03037344327,-25692.36859874689,-17877.04134806286,-10805.612812273243,-4395.418944828205,0.0,-1.4094070603492813e-13,-1.6268351335412674e-13,-1.0204935479756252e-13,0.0,-5.330817702666603,-19.88496810665559,-74.20905472395577,-138.47562539458374,0.0,-1368.2092865422712,-3359.514189689724,-5935.0643613251,-8385.049835777596,-10033.967317558308,-10405.899400586788,-9385.975053336317,-7216.859345023215,-4551.8808673018975,-2564.310833123859,-1001.7081763003023,0.0,-131.36125007696006,0.0,-1147.7059130428358,-1836.0925883758414,-2186.0131196950515,-2258.204548529258,-2105.926736151399,-1780.0601777934369,-1323.975992808512,-754.5746317967147,0.0,0.0,0.0,0.0,0.0,0.0,0.0,0.0,0.0,0.0,0.0,0.0,0.0,0.0,-503.3464250857009,-1004.7289035796839,-1664.477613851454,-2660.23763944821,-4185.490693203763,-5961.57551894882,-7888.099775201472,-9863.267548095593
-0.06892777081510902,-0.03442347864851305,0.0,-0.0015338545538296753,0.0,0.0,-165.59795675267648,-281.89408797823637,-338.1487125266967,-284.2573959827685,-94.18924175770712,0.0,-43678.61184071719,-66943.24421215939,-49065.52772819145,-31256.353935257455,-18704.218984139865,-10611.201799195542,-6110.980766327534,-3468.0258275282026,-1783.8008111459465,-694.1635308835677,-173.54088272089191,0.0,0.0,0.0,0.0,0.0,0.0,0.0,0.0,0.0,0.0,0.0,-36.61226176925081,-10.008767770407529,-3.422809312379306,-1.4507954868959854,-0.7185391019077493,-0.39210714834248095,-0.22625237477947552,-0.13325149598385477,-0.07580597821205025,-0.036806721068089035,-0.016429118031989792,0.0,0.0,-3.722224637879677e-12,-2.8705006402460707e-12,0.0,-0.024724216484266495,0.0,-28.46479287317746,-52.06102484489958,-73.21804021620208,-91.64621196588234,-106.0395654623228,-114.50081845390592,-114.72131924978767,-104.22509188464709,-80.81750240626958,-43.68155384983863,0.0,-7.473261567917389,0.0,-28.53093296923115,-83.3139880943267,-141.5104552142724,-194.96307032773532,-238.5388039327025,-268.32369869989054,-281.82669387009,-278.33117658644767,-258.57767563300484,-227.76538117840423,-178.44608741494093,-108.44108551442014,0.0,0.0,-0.5227254062184834,-0.8154725849234858,-1.3880897755166677,-2.238960095105435,-3.084012196978638,-2.9865155337084626,-2.3828281764305146,-1.6988614918022877,-1.1221130078824222,-0.708230163734631,-0.42827791448598096,-0.24328401483183357,-0.13041678414938312,-0.05887379130554127,-0.02517966097861306,0.0,0.0,-48215.68116035056,-66291.9878547794,-79280.71471854819,-82399.80964455823,-79417.46132831252,-71742.97039339319,-61307.51973573747,-50180.5001737589,-41010.36486024951,-32850.90162100359,-25293.89281449956,-18329.318744795608,-12296.837438708759,-6586.924416619036,0.0,-1.9811010960127922e-13,-3.392620318629253e-13,-3.294390593172725e-13,-1.9411730297956383e-13,0.0,0.0,0.0,0.0,0.0,0.0,0.0,-2476.7833149886796,-6547.619070264995,-10468.976520806847,-13122.339051856243,-13680.398654252664,-12000.391904417953,-8373.476049724166,-3645.314233712257,-1655.9000178229644,0.0,0.0,-35.19727274789361,0.0,-1069.7952327761084,-1766.9465718789395,-2098.3139853478906,-2127.6448408015553,-1921.889627945777,-1545.4251273050018,-1063.820230389147,-541.2162031366576,0.0,0.0,0.0,0.0,0.0,0.0,0.0,0.0,0.0,0.0,0.0,0.0,0.0,0.0,-271.52552917938107,-582.7556916406501,-1054.768333815926,-1971.8400297880814,-4172.354145911703,-6560.150720825053,-9246.193818387113,-12619.501640727856
-0.10667461593854083,-0.037794132478675,-0.010078435327646632,0.0,0.0,-119.87281527922983,-281.81441027509203,-453.19951861996304,-586.4562581939974,-533.6133140197812,0.0,-42160.90056044086,-107771.20315070938,-175028.83727972888,-79552.08860514734,-39182.02122516869,-19521.16735958582,-8718.518638967234,-4741.705397087579,-2584.003192844308,-1091.9510009975636,0.0,0.0,0.0,0.0,0.0,0.0,0.0,0.0,0.0,0.0,0.0,0.0,0.0,-136.44027930659573,0.0,-1.037514143805667,-0.727247262843362,-0.4206794206717959,-0.23693131793607228,-0.13493870273001227,-0.07657111820450123,-0.03809427410413787,0.0,0.0,0.0,-3.1713212842437107e-13,-1.2685285136974843e-12,-1.0347572884858886e-12,0.0,-0.09889686593706598,0.0,-19.152327375783656,-37.289644758713784,-53.67806670498203,-67.15335383628431,-76.25387453664048,-79.2773528440021,-74.38182635310068,-59.91825391172491,-35.18393907949862,0.0,-0.5365574309684089,-2.0024547497214495,0.0,-30.80974378259789,-68.26956152181275,-106.65706491030328,-140.53310036462705,-165.49179371046074,-178.23506756923632,-177.18691061764983,-163.3618190001701,-135.75771853876458,-121.09137952188335,-88.04779837425077,-52.653726560178825,-14.126022352044382,-3.8503628479987078,-1.275429039950448,-0.7286279055846012,-0.823609997464471,-1.1777223087566155,-1.648319142456556,-1.7276407620203735,-1.50844230609064,-1.1856980866993005,-0.860808123971262,-0.5895857626536103,-0.38511343296359785,-0.2404754254164927,-0.1434136506039425,-0.07989872009416889,-0.041844852608910986,-0.018328263981480516,-0.007620425520917662,0.0,0.0,-29581.129132475387,-39043.80181135337,-44194.26846837986,-42703.79023268461,-36624.10853266952,-27785.68075092596,-24338.114297275428,-20311.233556433046,-15413.320518755781,-10034.17612722723,-6394.065245357532,-3245.247415494142,0.0,-4.531784065421916e-13,-6.885582524982214e-13,-6.216933890724741e-13,-3.449807978034202e-13,0.0,-1.6147428691368456e-14,-1.139642033459961e-14,-6.587005255118579e-15,-3.569195054695932e-15,-1.6573184822645721e-15,0.0,0.0,-7309.652083939351,-13820.898125328556,-18306.01371480715,-19192.96426014967,-16561.717860358665,-10631.338715743246,0.0,-413.9750044557411,0.0,-2.5140909105638274,-9.427840914614357,0.0,-1364.5284461826618,-2063.584481015923,-2312.6514090160217,-2232.171201383301,-1908.5618075251587,-1415.9304730916494,-844.6635983064185,-346.4699503607691,0.0,0.0,0.0,0.0,0.0,0.0,0.0,0.0,0.0,0.0,0.0,0.0,0.0,0.0,0.0,0.0,0.0,0.0,-3971.935139871589,-6860.4794001016435,-9917.023136843265,-14394.772802355847
-0.19472093510178418,0.0,-0.002519608831911658,0.0,-72.85921260235136,-197.67685084182725,-388.58735044849885,-662.6333180325265,-1020.8634876095489,-1263.7396019023588,0.0,-60872.39909105408,-170216.4629219506,-100044.31709729494,-54931.96818750038,-26398.47500068414,-11479.91059006749,0.0,-1553.3189902112388,-1034.3305457638867,0.0,0.0,-1282.9080118642883,-1960.4697942138162,-2122.9405065055807,-1556.3572888487045,0.0,-1730.3387337751763,-2457.8860121408525,-2478.497420528188,-2135.153240904983,-1672.713794362729,-1226.1157585677552,-843.2924360766509,-509.148855457132,0.0,0.0,0.0,0.0,0.0,0.0,0.0,0.0,-9.855977083885168,-9.899683482103143,-6.628153780458321,0.0,0.0,0.0,0.0,-0.37086324726399744,0.0,-10.85487187124338,-24.26716010918987,-37.05122800872796,-47.0352621376324,-52.54522600395274,-51.972892032361315,-43.61037940688804,-25.88215832965324,0.0,-0.038542465640336435,-0.14377497415218632,0.0,0.0,-26.43848063934768,-52.29744930002314,-76.31514254050089,-95.0204725100089,-104.66020297527707,-101.93786724894402,-85.32406203110303,-62.171470257818285,0.0,-32.79461999611386,0.0,0.0,0.0,0.0,0.0,0.0,0.0,0.0,-0.603901302070598,-0.7672860658258359,-0.7376021992123721,-0.6746804249330125,-0.5458356386497152,-0.4041913299449501,-0.28211462929830733,-0.19009060326659696,-0.12286367275572535,-0.07546258585828079,-0.04397276538138148,-0.023847777796093414,-0.012153438102190134,-0.005147440603419304,-0.0020770528818991755,0.0,0.0,-15612.020501168938,-18253.81353629589,-14699.44341133002,0.0,-8245.178021493204,-8642.597788697385,-6013.979576863292,0.0,0.0,0.0,0.0,-9.260452640692656e-13,-1.340099182515295e-12,-1.1237954466709823e-12,-5.641124991616429e-13,-1.5432644839812928e-13,-5.3193294430874216e-14,-2.2851247391911403e-14,-1.1382405631178775e-14,-6.032456481400578e-15,-3.0600788743623567e-15,-1.1385883178661633e-15,0.0,-8870.091140163853,-19198.95018176087,-27087.85342189414,-28223.72681118021,-24422.17656112379,-17590.160952890157,-8754.958075520783,0.0,0.0,-0.6285227276409568,0.0,-1297.0356837542756,-2324.7340709386212,-2810.211496986073,-2856.53596831698,-2579.826748190476,-2064.255927679914,-1365.0713592300228,-552.4337393841104,0.0,-58.6171832278536,0.0,0.0,0.0,0.0,0.0,0.0,0.0,0.0,0.0,0.0,0.0,-577.6778403635946,-978.2922707845628,-1277.445899482964,-1569.3508153125347,-1983.7499135698624,-2803.792452472819,-4854.907013503143,-6992.80860290213,-9166.646526563385,-11213.198795770217
-0.47696756580935895,-0.6276368097457865,0.0,-29.660076928496295,-93.75999956757822,-209.38802503722886,-412.2248226445497,-787.8829154520954,-1570.6247723093124,-3500.481605980105,-9351.15125005805,-31112.23288182491,-54225.38118618751,0.0,-13732.992046875095,0.0,0.0,-195.64108176271708,-437.240017993489,0.0,0.0,-1534.5596683617373,-3171.1622532433375,-4436.030658485396,-4974.934942959802,-4102.488648889238,0.0,-4463.4689229598525,-5622.7078942600465,-5320.950429066916,-4389.401748729016,-3329.586177978179,-2388.4568038316406,-1637.9051302817168,-1056.8627064452814,-591.2380402336877,-357.4257414856388,-226.78534358818075,-148.83852599043087,-100.32828038013163,-69.24828408929997,-49.00886551213045,-36.09328101383565,-29.52422485343753,-23.11460306406908,-16.612931639730142,-10.382172547261808,-6.721530876124797,-4.297658364660174,-2.6076884308059802,-1.3845561231189238,0.0,0.0,-11.872895798074353,-23.224423083107546,-31.39124070156461,-34.918875309176784,-32.458609874602395,-22.204640912436947,0.0,0.0,-0.010394888409159404,0.0,0.0,-8.015645602347398,-22.646729474769703,-38.16661249843125,-51.28558344166827,-58.57344415963061,-56.190678431694664,-39.53213642015967,0.0,0.0,0.0,-10.087100462572069,-3.535262600980086,-1.4017433848232541,-0.6089842595101325,-0.2770936792283922,-0.12869917630462616,-0.06006978023178572,-0.027501363028597216,-0.0110086764628761,0.0,0.0,0.0,-0.2295857751706622,-0.24366267574963626,-0.19922928917816768,-0.1490631510180844,-0.11490868559586259,-0.08248785129408112,-0.05511518520184747,-0.03473584526224073,-0.020936643719321534,-0.011998108488330158,-0.006359271429587905,-0.0031607709241773985,-0.0012965270006088567,-0.0005084863495790665,0.0,0.0,-3919.851576354672,-979.962894088668,0.0,0.0,0.0,0.0,-6.9599470763749545e-09,-4.3294230834284186e-09,0.0,-1.9109034672195758e-12,-2.62199776682271e-12,-1.969276715934517e-12,-6.3334730377404e-13,0.0,-1.9448053242087713e-14,-1.5432869170993015e-14,-1.0058913396284538e-14,-6.11814636536525e-15,-3.4119522159181128e-15,-1.4942743971022969e-15,0.0,-8971.762294955195,-27016.958039656925,-42622.72297982832,-42191.91300155325,-35313.10062006614,-26552.170459172816,-17429.671349192973,-8682.814634664877,0.0,0.0,0.0,-2863.4086640784844,-3827.1606568314796,-3995.991467672776,-3723.4542190753596,-3166.343895381718,-2403.5637957740073,-1427.665296764424,0.0,-222.22377901073935,-234.46873291143984,-192.84607384673413,-176.66196274886266,-187.44852897444392,-223.39064070807797,-282.68544669274627,-362.0527424555296,-451.2617482988433,-519.0783079001524,-471.0041347414798,0.0,0.0,-1332.4190906717774,-2058.0453432948275,-2562.1405118392017,-3016.2074482036423,-3561.8563865038154,-4376.5128828354345,-5651.091858789548,-7089.201471466822,-8543.55557076316,-9850.893314676325
-0.7782099280541801,-2.0335796731737883,-6.728471954895188,-24.88030814640696,-63.13268370223635,-133.89042709496022,-263.04099964037573,-506.048748821993,-973.271080195501,-1816.4107996506984,-2791.8905124271873,0.0,-15572.828940974554,-3893.2072352436385,0.0,-443.9246650908299,-499.4870521503024,-345.3243090573793,0.0,0.0,-741.7691050509029,-2967.0764202036116,-5431.150674261929,-7637.555643524628,-9238.279957958996,-9878.662363748444,-9524.283875137462,-10500.829063804189,-10248.526212872564,-8793.194652750415,-6771.917146965983,-4867.772364989331,-3360.2201484989114,-2263.0085747732946,-1489.1587998085897,-950.6637130038304,-611.6795821206869,-400.8771068766534,-268.24047999341104,-183.2263114407957,-127.6559904649378,-90.69389694538619,-65.84003368977463,-49.03303825196022,-36.42157228100551,-26.326797167131364,-18.194227673192295,-12.206292592577208,-7.861414151709919,-4.748539235444824,-2.5596728144057175,-0.9941847691693714,0.0,0.0,-12.582327824063244,-20.386402276341716,-23.280424656587407,-20.738031244434527,-12.74957436825734,0.0,-0.0008767317880226726,-0.003037087996301187,0.0,-3.3243986011319717,-9.41585293461989,-17.96617915895249,-26.436687777263895,-32.08713456811034,-31.797042255150643,-21.996930171711327,0.0,0.0,-0.4940926630353637,-1.415150674927856,-4.0185192531943335,-2.6522065565250217,-1.4627266788027982,-0.7570999739888834,-0.37069128109881017,-0.17763324575832667,-0.08407858159391952,-0.03892699541972703,-0.016533342822907186,-0.004430222860654586,-0.0011875486197111564,-0.00031997161819003996,0.0,0.0,0.0,0.0,-0.03799313680468792,-0.03706386162288907,-0.02777445839278725,-0.018918786746412453,-0.013164843330621841,-0.008543080702221052,-0.0051307657024247605,-0.002910232384613657,-0.0015168507286789615,-0.0007374183977074092,-0.00029321840617894485,-0.00011172631172135205,0.0,0.0,-6.727714303906068e-07,0.0,-6.514519305981497e-08,-4.2311849126282465e-08,-2.35103652220714e-08,-1.035774525733872e-08,0.0,-4.0955708379863274e-12,-5.267711701621453e-12,-3.4979663464703365e-12,0.0,-2.87452011545252e-15,-9.166049366483626e-15,-9.373262653688404e-15,-7.302232417601118e-15,-4.969263367857769e-15,-2.9753092268425467e-15,-1.426557054624912e-15,-3.56639263656228e-16,0.0,-37274.396702083315,-74194.16745620899,-62608.10159513831,-48086.1424584147,-35875.748914542,-25728.742227413415,-17301.58718946654,-10742.082126034851,-7766.998478743981,-6388.464799312607,-6329.438315728187,-6124.508424636045,-5623.1394977982,-4874.945544929976,-3958.5308184870437,-2955.990063269988,-1942.0260320536768,-1015.7479550440206,-654.4263831315697,-464.1878955605127,-360.2535997267537,-326.35324817444587,-349.74151244107884,-423.4285871654553,-545.298403607822,-714.2637748311043,-923.9159428404022,-1154.0473485610883,-1364.9382310664464,-1531.6751705649428,-1921.7693628022514,-2693.9531790322635,-3359.3294998887877,-3896.8633563820486,-4371.4820791678385,-4870.955301418149,-5489.310833591483,-6283.746067372144,-7169.349853433189,-8067.480970365559,-8927.45516604265
-0.23877372512796943,0.0,0.0,0.0,0.0,0.0,0.0,0.0,0.0,0.0,0.0,-1118.0804288937345,-4172.727342467072,0.0,0.0,-1276.2116082130174,-1208.6992344530004,-686.1691023164979,0.0,-97.04868684456015,0.0,-4160.826233139877,-7948.8083800761415,-11444.761283392196,-14461.966881603103,-16649.59697300809,-17717.644072997213,-17767.03724424688,-16077.373240675613,-12831.384822096195,-9037.299821395174,-6009.36598651425,-3921.64285040138,-2564.7502205039596,-1686.1002050119534,-1110.5784298523572,-737.7517671166252,-496.80302180433483,-340.01997566576415,-236.68049492470232,-167.4554693842694,-120.27069811470189,-87.53991854791646,-64.34632218362323,-47.21185064086136,-34.07845707459753,-23.861648385798798,-16.047997669281823,-10.193166414157472,-5.965381544857677,-3.111411129889751,-1.417066262271768,-0.46839408776099445,0.0,-6.718485936803714,-14.291615923151616,-17.078389796396586,-14.463516078290985,-8.055625316157883,0.0,-0.0004698391557895034,-0.0008767317880226726,0.0,-3.881741469907995,-8.357188376047704,-13.365446449156465,-17.526824883561492,-18.829224798358577,-14.530660121150298,0.0,0.0,-0.1885650005546411,-0.5612199772135988,-1.1479907834817273,-1.9196193187523867,-1.5923176931228702,-1.0398567998740333,-0.5859976765437929,-0.27093822541963847,-0.12706394403595095,-0.05968430496583866,-0.02759469423348418,-0.011767476548371032,0.0,0.0,-9.233785304900355e-05,-2.4756366526239933e-05,-6.687613055956175e-06,-1.994085697584767e-06,-1.2887297343828952e-06,0.0,0.0,0.0,0.0,-0.004260862154532323,-0.003878605287507451,-0.0027104782932764293,-0.0018325421831735067,-0.0011232251317859234,-0.0006311181063926642,-0.000323728915287018,-0.00015368684070646342,-5.38629328940802e-05,0.0,-2.691085721562427e-06,-7.273386611688512e-07,-2.1826892311297738e-07,-8.05918382232435e-08,-3.441191942828946e-08,-1.3591192723855063e-08,0.0,-9.203668183104281e-12,-1.085531185520644e-11,-6.754876968325376e-12,0.0,-2.3320310953264543e-15,-4.968361454705869e-15,-5.591899659675858e-15,-4.80749025257376e-15,-3.4813654616221655e-15,-2.093464268969393e-15,-8.800053308985762e-16,0.0,0.0,-47886.461312467334,-154271.44854778604,-85960.18346437628,-58547.61870391238,-43135.94051316706,-32307.961456452147,-24052.709769753023,-17899.74283592889,-13937.446989628468,-11457.422402778266,-9941.371374885617,-8718.295228186324,-7497.112553954014,-6194.657644359313,-4836.843770366509,-3519.8396067652448,-2368.700813136304,-1466.5394049908837,-915.5459029110835,-607.6028664724072,-457.6271813255028,-418.7559177813541,-461.7356854503483,-575.2837919053648,-760.8158057426867,-1025.7880104215935,-1376.090899671772,-1808.2569124388626,-2303.026270400155,-2839.993088393577,-3461.449101615418,-4162.294762771188,-4788.4561208524365,-5294.501334640446,-5701.902210677521,-6061.171906421725,-6426.029082754881,-6825.231723690832,-7236.970904545175,-7629.563291238972,-7989.319543566784
0.0,-3.1587652976087717,-6.756664518908773,-11.390212982621874,-16.077228863910506,-16.485579884905427,-4.801385344939872,-2.719961494854062,-6.078460634476374,-21.593881043051436,-80.29706353772936,-299.594373107866,0.0,-3793.3769447416566,-4070.291077890583,-3452.2225333082392,-2372.929175132184,-1190.652865755612,0.0,-388.1947473782406,0.0,-5727.420132279759,-10758.495329510564,-15730.71422836491,-20515.22931205314,-24540.114573683597,-26929.658199596426,-26772.3025995105,-23462.54468348682,-17417.671573563577,-10536.531330004269,-6210.748909271118,-3752.235046088398,-2388.249251829211,-1579.9133698829062,-1067.7980342770204,-731.9460346891217,-508.56323755829646,-358.3559059406086,-256.02022320798,-185.2146940327356,-135.39350758123553,-99.70262020356607,-73.60048129375491,-54.00105102421918,-38.913532104598595,-27.125911126123537,-17.930883284593815,-10.897872290780473,-5.808409399938662,-2.503523898023842,-1.0942750622669548,-0.45651008877220994,-0.13168560253044517,0.0,-12.98318568306445,-16.27800252755633,-11.982017956174946,-5.009410818083207,0.0,-0.00012589304711266836,0.0,-1.3577175011095675,-3.845378902452305,-6.765712650506459,-9.611593378064182,-11.47594050946703,-11.172279620612173,-7.4963734310919765,0.0,-0.05884523360640124,-0.1930400250049655,-0.4142314617826633,-0.6959731630330678,-0.919649545210616,-0.7575880973400396,-0.5183851510266723,-0.27609570689261625,0.0,0.0,0.0,0.0,-0.002941869137092758,0.0,-6.155856869933569e-06,-2.4623427479734277e-05,0.0,0.0,0.0,-3.1608332399468175e-06,-3.037786370475101e-06,-2.3320586178488352e-06,-1.5319271269072856e-06,-7.72892130072776e-07,0.0,0.0,0.0,-0.0005862329230180172,-0.0005123895088985617,-0.0003400999807903064,-0.00021689230786999962,-0.00012542920292340335,-6.176489086985738e-05,-2.3623340795337985e-05,-9.364232794690252e-06,0.0,0.0,-2.737466122542471e-08,-1.9954281543987854e-08,-9.595106209792073e-09,0.0,-2.1863790039224358e-11,-2.2194990567774644e-11,-1.2666229671624726e-11,0.0,-1.4852428111474289e-15,-2.783465697337539e-15,-3.2184842777354e-15,-2.854463471395901e-15,-2.05524395708774e-15,-1.0371770565142834e-15,0.0,0.0,-6318.97861979076,0.0,-69895.37787429865,-68413.56501066842,-57008.2083796915,-45812.432977761724,-36314.45331547511,-28701.54759716451,-22866.732458299222,-18625.62424106274,-15562.406447286374,-13260.329552849704,-11310.188559269627,-9452.357845472232,-7569.728708186767,-5674.347011854453,-3917.823780288202,-2546.398208735445,-1566.1629488721796,-933.6149570495576,-593.050486092663,-443.8963413217049,-429.30755617543656,-503.16151967405574,-655.1550892636141,-896.8930170368502,-1251.9815614420022,-1746.4027329878124,-2399.8631311245153,-3198.9168497044516,-4063.821810997352,-4921.739192499319,-5705.320649590571,-6337.698886116654,-6790.783650658603,-7080.453522490474,-7245.801030848351,-7328.4018673289065,-7354.180840105411,-7323.738749831908,-7224.481746491396,-7045.835034086485
-2.2257722240579088,-5.878396671526315,-12.477679795404446,-22.726958547668215,-36.43312258811472,-45.063705330771334,0.0,0.0,0.0,0.0,0.0,0.0,-7601.731421324739,-11103.216701076044,-9035.564833512437,-6089.458271997173,-3640.1420670118832,-1703.5131855737668,0.0,-1455.7303026684021,-3498.9516029742163,-7990.358966468593,-13627.038577321451,-20204.370988503742,-27328.121564560955,-34065.97381007672,-38688.571552194386,-38929.970270711885,-33582.83132019759,-22840.225458667024,-9480.405015787212,-4544.863274477553,-2488.299172851883,-1656.098370841581,-1177.5059884134403,-848.7543026836969,-613.6710998045446,-447.1479877991209,-328.8201873303937,-243.8297979338736,-181.98957595745748,-136.38601797393852,-102.27657339135743,-76.35193176361115,-56.27834005766184,-40.44870919345415,-27.797580729502943,-17.651752052189433,-9.659030064431951,-3.866859866092653,0.0,0.0,-0.13168560253044517,-0.07023232134957075,0.0,-21.363124281549855,-23.068416674589336,-12.17714240076927,0.0,-9.039083532011595e-06,-3.373303266116999e-05,0.0,-1.585491101985965,-3.3763439882851993,-5.2486899454616465,-6.8392739031267755,-7.5930641556302785,-6.887579743531106,-4.282553982605437,0.0,-0.042340909420639436,-0.11051840407615651,-0.20669268187902115,-0.3020208616572648,-0.3054176017169702,0.0,0.0,0.0,-0.006357114449985107,-0.006032526332549919,-0.0036552774644191656,0.0,0.0,-2.9872507993455383e-06,0.0,0.0,0.0,-7.89186149133048e-06,-8.800736979625139e-06,-8.316816854929285e-06,-6.658253624104761e-06,-4.758520974012959e-06,-3.0227577597075354e-06,-1.5596413933838203e-06,-4.159043715690187e-07,-1.0397609289225468e-07,0.0,0.0,0.0,0.0,-7.831113247927072e-05,-6.937277224729304e-05,-4.414408686660798e-05,-2.3364239516804307e-05,-1.1142504661860598e-05,-3.6445580158448257e-06,0.0,-8.952525134467471e-09,-8.435439312445176e-09,-4.834950571325382e-09,0.0,-5.60565014060185e-11,-4.339463070504307e-11,-2.171505115039888e-11,0.0,-8.25474451925722e-16,-1.4617742457614595e-15,-1.6441082825323018e-15,-1.3366353981867034e-15,-8.479698388186109e-16,0.0,0.0,-14799.31633135783,-25275.91447916304,-34220.459992609496,-56896.49793874014,-60790.49032430726,-55259.216826423486,-46791.12970271322,-38435.871230522076,-31572.294845130684,-26240.015159040762,-22135.911069036894,-18906.2495924548,-16227.351829957199,-13809.771610570262,-11432.401560478529,-8957.552331061086,-6372.991788576345,-3930.710293797688,-2332.905292645127,-1318.099224712876,-659.7004903223747,-387.08777952709704,-295.6001416934087,-351.4164459249497,-466.4477478073021,-645.2820284388681,-919.6196117000492,-1338.8424853230613,-1957.6753397147422,-2845.876029369343,-4028.956186298994,-5294.638113396239,-6456.3652077992365,-7399.549756981647,-8066.235123372805,-8450.480859395915,-8583.327197787738,-8513.176827163712,-8287.596515619198,-7939.351019582484,-7479.3215081977,-6898.789910819045,-6176.6212061731585
-2.1783813610957363,-5.651369369034136,-14.548699443514492,-30.606818824531825,-61.86459761010884,-127.33611885006518,-275.2384690554305,-645.3253927836458,-1395.309816186489,-2878.128355963167,-5727.810840655522,-10884.807204006645,-19303.70898422291,-23982.193604725348,-14879.293283085944,-8229.903654156136,-4394.667635344412,-1983.257809527572,0.0,-1935.774860321151,-4549.71714275987,-9108.02555329895,-15554.929024802908,-24131.609583767655,-34526.91214761023,-45707.087549867945,-54828.68392839251,-56676.17561094506,-49098.58486792464,-30879.993925119717,0.0,0.0,0.0,-570.3390702717896,-625.2579102455776,-536.0420882397821,-426.8360740462389,-337.53742650324915,-265.94705764797175,-208.48920523966342,-162.52779388928218,-125.88441496570364,-96.665723624314,-73.25233231167046,-54.31166824936289,-38.80538388205322,-25.96395054624466,-15.21951413022902,-6.219636048665243,0.0,-2.557206240441865e-09,-6.393015601104662e-10,0.0,-0.017558080337392687,0.0,-49.400894768545626,-42.45539748848189,-13.658134972312792,0.0,-2.423301466876391e-06,0.0,-0.5662769154883608,-1.6079029185490932,-2.82581600324088,-4.013429239928154,-4.9037481333509945,-5.169462466396203,-4.5024212152765335,-2.7462627557986665,0.0,0.0,0.0,0.0,0.0,0.0,-0.026887357677671152,-0.028149990474981124,-0.023538569468783122,-0.019395931467390524,-0.01411771341579541,-0.008588583525126746,-0.003515083622075383,0.0,-1.194900319738216e-05,0.0,-2.0797893877877832e-05,-2.373790721751232e-05,-2.2766708985696803e-05,-1.8994269572240816e-05,-1.4647443576040437e-05,-1.0519890297001713e-05,-7.021013894390718e-06,-4.240941544526082e-06,-2.0270113121859536e-06,0.0,0.0,-1.189004969512493e-08,-3.1706799186999816e-09,-7.926699796749954e-10,0.0,-2.697944979979021e-05,-2.960666671989011e-05,-2.2074444832477188e-05,-1.4547025743410668e-05,-8.196988320103002e-06,-3.4357274015187037e-06,0.0,0.0,0.0,-1.3092567630642779e-09,-4.0207648093172963e-10,-1.5896758487980656e-10,-7.361197969598025e-11,-3.079934422492773e-11,0.0,-3.5488075079399947e-16,-5.940485512502759e-16,-5.595392084456444e-16,0.0,0.0,0.0,-18620.489795312362,-33921.35084626828,-45764.90297289408,-54709.4275525348,-62679.66356374517,-62592.681521397004,-56447.03889898197,-47656.99777614559,-39065.6070587693,-32911.74539379539,-28385.12226369626,-24771.755283589282,-21699.329023538736,-18933.05656395404,-16269.144492575704,-13509.924454810545,-10455.087267002715,-6929.357517592169,-3099.120313681092,-1536.4134433345155,-713.628167011848,0.0,0.0,0.0,-214.31033802392128,-365.93099719176405,-539.9056649851307,-797.4609160023002,-1226.0934284366992,-1899.5801111804988,-2997.009460341563,-4776.393752729319,-6629.409248493817,-8209.533768325335,-9370.27804717074,-10077.21099100491,-10361.577465773504,-10289.197582110784,-9935.982564410218,-9369.456348412721,-8636.305214418562,-7755.406352567611,-6714.735182422862,-5468.812814568051
0.0,0.0,-9.458929785087562,-23.28701969683576,-53.08233017772364,-127.17770340394999,-328.29236458801114,-910.7532858926639,-2057.7855159991427,-4389.392767010658,-9148.307802652274,-18507.70899114815,-34746.10370683492,-50642.55545051649,-18269.511039949863,-7556.195426197013,-3725.367010682056,-1834.8504171921093,-893.1256032621105,-1737.651995856333,-3656.116554445159,-8337.097079164436,-15353.04238482358,-26240.226174153737,-40940.82989224436,-59406.78031339236,-78242.90100056263,-83847.46337675121,-75255.33861543621,-51581.165373887205,-23053.751155448856,-6177.23394822456,-1655.184637449384,0.0,-217.14449405729815,-243.32006598361497,-220.0936816373797,-210.21858651966505,-188.9414115185808,-161.6521714875261,-133.74797939430425,-107.95812437527988,-85.24957382852442,-65.6800056093938,-48.910616746066054,-34.49720753915118,-22.03332344319346,-11.042717873816747,0.0,-3.580088736618611e-08,-9.589523401656994e-09,0.0,0.0,0.0,-119.15372940763292,-133.78505730415074,-83.69414353847985,0.0,0.0,-6.541223354939672e-07,0.0,-0.65720474340435,-1.454027653481167,-2.3055878662010767,-3.0754628776590933,-3.592826923952846,-3.678616361327007,-3.2063798953801586,-2.2000758253126946,-0.9816181045388043,-0.5175330214719817,-0.30883482022108916,-0.20004109660761416,-0.1368105450401337,-0.09853111619011058,-0.07939944023570353,-0.062174034753470254,-0.04660835593276085,-0.03357032853499847,-0.02245381233811447,-0.013066259598217035,-0.0054717509631747865,0.0,-4.4808761990183125e-05,-5.750016512078556e-05,-5.945366829399905e-05,-5.1387026006474685e-05,-4.044279766170364e-05,-2.976218874760093e-05,-2.0758797579989958e-05,-1.375285009347095e-05,-8.564702762022127e-06,-4.892983211820129e-06,-2.307462310833914e-06,-6.18282584146497e-07,-1.6566802575207418e-07,-4.438951886179978e-08,0.0,0.0,-0.05061270709063983,0.0,0.0,0.0,-4.552430304258177e-06,-3.662695473622041e-06,-1.9013632701269851e-06,-5.07030205367196e-07,-1.26757551341799e-07,0.0,0.0,-1.40081575782834e-10,-1.0412537748549795e-10,-6.128635897414363e-11,-2.7870346053331784e-11,0.0,0.0,0.0,0.0,-8460.979420410215,-15591.843958222946,-24885.865885525207,-40560.608334981174,-56500.69428550884,-69152.9190136102,-76172.68368089048,-76520.04724230872,-70453.53329855365,-60279.25947196179,-48324.2154441179,-37257.81383461415,-32623.957407585312,-29616.973218359595,-26866.658778085242,-24186.25465415682,-21536.400909744523,-18823.825340967982,-15883.06449918524,-12423.51476454706,-7790.2307011085295,0.0,0.0,0.0,0.0,-58.97085878610502,0.0,-139.89390897917374,-243.06023795102763,-350.94871830806187,-504.2249588879942,-868.4902012419299,-1417.5422162304294,-2466.1879480892176,-5450.2001157861505,-8237.071359528814,-10382.082569843147,-11794.817672377789,-12510.753327710345,-12629.420430591063,-12275.903100481042,-11572.099499963468,-10617.941099212821,-9481.007137120998,-8191.263505240037,-6735.93165174405,-5044.902960112111
-6.367984664038242e-08,-3.782443352132902e-08,0.0,0.0,0.0,0.0,0.0,-611.6098701998563,-1535.6861949067613,-3473.349393428047,-7968.318611794769,-19251.61725109876,-50530.44140145212,-125572.41345055585,0.0,0.0,-1115.7545639946889,-737.6512452966995,0.0,-465.59096539691217,0.0,-5231.203824090047,-11279.917261173245,-24535.422835779355,-43589.400933821125,-72736.30281089451,-114888.67638371445,-125215.43828006099,-116494.14084318177,-77135.57779954406,-34456.60529968364,0.0,-443.5046015729759,-118.83376884251987,0.0,0.0,0.0,-94.30182641945056,-117.94783041916024,-115.43008979755605,-102.85382782512887,-86.95052931258721,-70.69444170511002,-55.30749955131429,-41.153585586356364,-28.23950608529198,-16.629417813561258,-6.9180339218445015,0.0,-1.3361402606308745e-07,0.0,0.0,-235.2137589033599,-319.13911283735086,-342.8298603263809,-282.89146150194455,-158.53611936128675,0.0,-5.666459457315939e-08,-1.931878750994781e-07,0.0,-0.6085144046478728,-1.245415085770148,-1.8670449304231667,-2.390007480554298,-2.713480323474289,-2.7457961595788207,-2.444406179604399,-1.8660425455331486,-1.208863571370541,-0.7796791611280334,-0.5177651628047607,-0.35451902116923384,-0.24866996736281022,-0.17791447948460515,-0.13000525232156218,-0.09453835237043556,-0.06715049097379162,-0.04582321440172808,-0.029060947803446997,-0.01575089156645214,-0.005305660632406733,0.0,-0.00010978587964256488,-0.00012573823019896015,-0.00010812958817085824,-8.191373085268382e-05,-5.7855266907042225e-05,-3.8852890176469355e-05,-2.4872707902847552e-05,-1.5168009734870024e-05,-8.591963848406717e-06,-4.4588262298984e-06,-1.6915721351830784e-06,0.0,0.0,0.0,-0.04994776312671775,-0.106777060472005,-0.20245082836255932,-0.3358477127169847,-0.5617830968476044,-0.7716533257661169,0.0,0.0,0.0,0.0,0.0,-62.438927749880364,0.0,-5.412444471410841e-11,-5.616599030520765e-11,-3.953773266176456e-11,-1.939568101425577e-11,0.0,-2562.4067388663384,-5529.607120718867,-9962.420894191873,-18252.073723417918,-29020.53052695637,-43391.01124889671,-62235.38337357828,-82367.89894717575,-98173.39511514739,-104308.34091510822,-96774.30842604561,-82422.14495854711,-65892.25024619364,-48102.7906937501,-29017.475427984093,-30709.297183572126,-30592.15442407157,-28891.651956235273,-26642.629905258782,-24202.46707989926,-21606.691462366463,-18774.99343641537,-15565.676590891766,-11808.050522294889,-7601.942261682391,-5355.984998874,-3302.3680920218812,-884.5628817915753,-235.88343514442008,0.0,-102.20505994186996,-115.4673273252977,-116.6040114083399,0.0,-326.10020141317153,-435.91060441090025,0.0,-6321.147402800167,-10486.593503996384,-13286.90747914607,-14916.156744793398,-15541.564216875016,-15369.447828407514,-14612.894889267534,-13458.57123575873,-12049.20141136295,-10478.518729620939,-8792.708879534921,-6992.8249592072,-5031.421969307071
-1.2647226011356384e-07,-8.761788744560034e-08,-5.4598878941947475e-08,-3.6938153228246754e-08,-2.5801086176668853e-08,-1.7699275518382443e-08,-1.033918028304507e-08,0.0,0.0,0.0,0.0,0.0,-22551.63119731893,-39676.0833878236,-10580.288903419629,-2645.072225854907,0.0,0.0,0.0,-124.71186573131575,0.0,-1307.8009560225119,0.0,-17032.146973969324,-36145.04819636626,-73060.35361265011,-183360.0634433397,-185631.4725165965,-188370.20867768588,-106010.39968142359,-37637.09224374165,-10081.363993859371,0.0,-31.830473797103537,-8.488126345894276,-2.122031586473569,0.0,-49.04088873897698,-73.11799394105357,-79.26652945840905,-75.28671279606799,-66.29572334483005,-55.27016412801417,-43.70196530439697,-32.15671996275314,-20.677813402099126,-9.326807803915097,0.0,-1.8610068414815672e-06,-4.986552168861637e-07,0.0,-386.63830084506975,-621.7159227760887,-698.5128321196627,-650.1351375585954,-496.4148090159598,-267.5588724047226,0.0,-3.3470503193159424e-08,-6.196457033078595e-08,0.0,-0.5314377894169929,-1.0520733545283862,-1.5271692891671438,-1.9040417906606433,-2.1252907298111894,-2.14668177390959,-1.9594061179254698,-1.61082460584496,-1.2081144742821777,-0.8745548888648507,-0.6280276487006867,-0.4515998579017504,-0.3254358237572683,-0.23445158206393768,-0.16816873719550463,-0.11882363143291821,-0.08163204119024202,-0.053511090294675254,-0.032215872907493316,-0.015570698231737814,0.0,-0.00021843184755578445,-0.0002685965263811165,-0.00022753728786163203,-0.00016541272333779017,-0.00011028304232636019,-7.021164893731215e-05,-4.292139714838675e-05,-2.471113412006091e-05,-1.3454517094754899e-05,-6.176316666836323e-06,-2.6587857241836805e-06,0.0,0.0,-0.017853596154125725,-0.04209805859938933,-0.09301399203486597,-0.17470965039874292,-0.31656583317060777,-0.5791569256577753,-1.1396313489073164,-2.524830206216863,-6.702712140595636,-22.239009318617175,-82.25332513387306,-306.77429121687504,-348.39598566048284,-249.75571099952145,0.0,-2.025021276839202e-11,-2.6876406359459676e-11,-2.1302900353451168e-11,-1.0174645341926735e-11,0.0,-4720.019834746488,-9593.60084981726,-16068.002732630706,-25564.36405211321,-38847.19317728789,-57422.265209527,-82622.01496325951,-112562.12301446845,-136864.42158469543,-146112.9764383494,-123846.70058821847,-96568.4878633956,-72764.80586051555,-49177.22165670478,0.0,-30603.601474647527,-33150.695338119294,-31465.16471752551,-29290.145930743776,-27024.146042227287,-24625.479992183242,-22044.541193218014,-19256.147640309748,-16274.352535496871,-13243.73352556068,-10519.629641791726,-6968.92448742195,0.0,0.0,-511.6309539103626,-153.45900346305814,0.0,0.0,-233.18509024024615,0.0,0.0,-3845.50890605102,-9347.795991420888,-14101.247774514475,-17362.797097956463,-19041.337610780807,-19369.89896659573,-18693.91177690398,-17347.65739243078,-15600.089142449027,-13641.774580867166,-11591.157490472195,-9508.228324077894,-7411.237336247825,-5298.0732082593195
-1.804359588758107e-07,-1.3157597720703678e-07,-9.38394750950916e-08,-6.735264779527592e-08,-4.8566915960753735e-08,-3.4656835614337784e-08,-2.365744561409248e-08,-1.4517496106300198e-08,-9.675008775198908e-09,-6.659903231884864e-09,-4.504318843591331e-09,-2.5966655145008075e-09,0.0,0.0,0.0,0.0,-1.7819984790325894e-11,-7.127993916355415e-11,0.0,-33.25649752835087,-8.314124382087718,0.0,-1862.0292159329206,-7448.116863731682,-10898.291265024485,0.0,-359859.75126039766,-245580.1796652995,-345344.82166954165,-120898.72000472284,0.0,-2688.3637316958325,-672.0909329239581,0.0,0.0,0.0,0.0,-28.743734595403783,-46.216727147668024,-53.23132129895858,-52.730770555903995,-47.675487142650844,-40.38852615771965,-32.0734775755063,-23.09351555816008,-12.988219756436296,0.0,0.0,-6.9453721490401054e-06,0.0,-493.201398058107,-924.8372806041901,-1166.498799236263,-1203.0611553066155,-1062.7830487723784,-785.0737645985766,-415.28456124164376,0.0,-1.5252847868692352e-08,-2.1199903030506276e-08,0.0,-0.4651633984917131,-0.9042712537592594,-1.28551708105638,-1.5736996631099422,-1.7369590312002368,-1.7562340883228793,-1.635711912342931,-1.4097352856390442,-1.1382148310483589,-0.8823982713485052,-0.6681906852313853,-0.4984169379798129,-0.3670218877005748,-0.26628728781837274,-0.1893944829636004,-0.13095539497549077,-0.08704295205958304,-0.054373232679237625,-0.03072075530011321,-0.014316028453005806,0.0,-0.0006051308638420217,-0.0005186310904644848,-0.0003504016715286618,-0.00021570097499231034,-0.00012359406617765473,-6.97868893674595e-05,-3.7909915359704625e-05,-1.7595914334254468e-05,-7.762607857252342e-06,0.0,0.0,0.0,-0.01126053532357312,-0.029316326017113568,-0.057524646208565615,-0.10530049601461389,-0.182481715917493,-0.3099459282633534,-0.5245828078361925,-0.8927551669070223,-1.4853240095983837,-2.047009037548505,0.0,0.0,-796.4478540731444,-837.0539404255347,-588.1879305877227,-254.92899315943714,0.0,-9.786522010787866e-12,-8.622817050653713e-12,0.0,-2533.991384585569,-6724.071750302356,-12056.773711172975,-19151.62513440048,-29090.186575116342,-43381.612920554966,-64828.84144866391,-98268.28825546431,-148394.15656274318,-190609.1917708165,-219432.44266537554,-155931.02962508326,-107240.30004630126,-79421.26367576819,-75841.29007255344,-135574.79286380348,-58554.413376898694,-39941.86073623256,-34528.16564500369,-32028.643057963516,-29978.491166082888,-27826.541270921207,-25521.543703963704,-23140.020241632345,-20789.47845382217,-18579.00966327173,-16509.87555531028,-14053.700215874196,-10492.933727638365,-7060.628294803238,-1893.0648121784,0.0,-1170.3419730147284,-911.2312570635406,-932.7403609609923,-1100.5422114852968,0.0,-6034.2396327846145,-13123.279882320463,-19207.804504687872,-23021.69552738922,-24516.497633783252,-24202.782261829445,-22688.64292018875,-20483.733761109743,-17952.353360746616,-15326.650279191415,-12736.108327329159,-10237.809590062148,-7845.822853451251,-5564.953903012492
-2.2013720353690036e-07,-1.6441058741372674e-07,-1.218303964377938e-07,-9.006604689837653e-08,-6.645709425782629e-08,-4.870370536497815e-08,-3.5116270453327304e-08,-2.4737530036395056e-08,-1.7522635762983092e-08,-1.2460285309032629e-08,-8.760706628183272e-09,-5.882343214523801e-09,-3.5304262358344057e-09,-2.2797216206941123e-09,-1.4803022538328589e-09,-8.321497479608659e-10,0.0,-2.6729977187210826e-10,-2.0352400991554857e-10,0.0,0.0,0.0,0.0,0.0,0.0,-30089.628298337328,-120358.51319334931,-91484.67321466221,0.0,-32239.65866792609,-8059.914666981523,0.0,0.0,-0.43857634957540254,-1.234942246308235,-3.0008132177910065,-7.406246533429868,-19.717322494970137,-29.77385875525619,-34.711258033853255,-34.72956098593857,-31.286928512149697,-26.5349757847073,-21.10990328174852,-15.155644937944585,-8.181550065485979,0.0,-9.673655486967532e-05,-2.5920481754678853e-05,0.0,-1047.9683116282376,-1653.0106242773215,-1916.3808382581578,-1884.4499410981587,-1612.8621376257263,-1165.8126393643247,-608.505607963276,0.0,-6.340985251103715e-09,-7.582193922546791e-09,0.0,-0.42494455079060023,-0.8143311809605588,-1.1369281181891746,-1.3682807495225098,-1.4926116435569363,-1.5055836358387604,-1.4174721574843305,-1.2541897933199266,-1.0526112929237088,-0.8486326802494264,-0.6639198828965366,-0.5068553210855413,-0.3779475012468454,-0.2742811985453784,-0.19216651186503342,-0.12856051344586153,-0.08121113939336178,-0.04621813306257904,-0.021977887160716112,-0.010972660280172202,-0.0038153133541320716,-0.0016834605173478188,-0.00085039530010614,-0.0004397373327962201,-0.00022339543892513478,-9.860535802448902e-05,-4.7431926995166575e-05,-2.13354605887178e-05,0.0,0.0,0.0,-0.0026698504994320605,-0.0065759131286434016,-0.015725815277178912,-0.030626526382189823,-0.0533837042031457,-0.08818162989753096,-0.13997078899326182,-0.2161533561291204,-0.316473210516619,-0.4214825012861966,-0.4767016277211451,0.0,0.0,-1846.9033914954741,-2041.963184650168,-1615.1839913807892,-1011.0130777663975,-431.528042050026,0.0,-3.6468646330380795e-12,-3.4018458383758164e-12,0.0,-3411.893788039919,-7585.5020707043905,-12757.797110171803,-19391.5375186819,-28263.144193396707,-40760.23048115173,-60243.199409109366,-97228.14004719071,-192137.02321022347,-257745.74627045175,-385076.572827253,-173204.67520043784,-97040.41902095801,-61838.65872370253,-39191.88209393733,0.0,-28097.398432911217,-33534.16858490856,-34676.994068293185,-34317.769490023726,-33034.63429321954,-31180.65022145501,-29075.072110083252,-26992.911168433766,-25164.53137488773,-23772.951118393794,-22887.162700303466,-22243.067093126196,-20857.40639987603,-15856.514639396184,0.0,-6184.180936344168,-3770.136634995378,-1541.842694278454,-1486.0028850549104,-3469.428484980233,-4735.159937898468,-7168.169742768262,-17903.279400390784,-26584.99483453067,-30999.682873133566,-31800.1751351386,-30236.089526755746,-27374.14388091798,-23946.281371079152,-20398.940260242598,-16976.364847828772,-13788.815949596392,-10861.078855395019,-8169.290584486277,-5674.0367727847915
-2.4281752124202363e-07,-1.8409877247567436e-07,-1.3900547634604782e-07,-1.0462404910431236e-07,-7.849170880858743e-08,-5.858462113554301e-08,-4.3366400798734494e-08,-3.1793717823673915e-08,-2.321771893186056e-08,-1.6897895613511813e-08,-1.2195879145913934e-08,-8.641574479814694e-09,-5.959640108293145e-09,-4.1081579932354545e-09,-2.809337646764106e-09,-1.8482967380575738e-09,-1.1108620997921858e-09,-7.94395138439195e-10,-5.467962678071948e-10,-3.239300900233555e-10,-1.7269746918181809e-10,0.0,-4.846453974479314e-11,-4.5575577931467174e-11,-2.8917739628937566e-11,0.0,0.0,0.0,0.0,0.0,0.0,-0.034624210132891665,-0.13849684053156666,-0.519363151993375,-1.5003794178665308,-3.3620640914259234,-6.906850420958328,-12.945450095790715,-18.450127344533335,-21.110291095259697,-20.189286841847334,-16.207690135302087,-13.354545187211322,-10.675514828835903,-8.237610846383767,-4.582335567563035,0.0,-0.0003610257377240224,0.0,-995.3009440163133,-2045.6612241775229,-2722.8560666186995,-2961.5639884208895,-2805.4956332021334,-2338.4029212680434,-1656.80904726972,-852.9252312471355,0.0,-2.5288992131757174e-09,-2.787887408577179e-09,0.0,-0.4202836237101292,-0.7911808011032011,-1.0795834612172504,-1.2698835732339855,-1.3596231576662385,-1.3560166539908955,-1.2744032884357044,-1.1369404372326233,-0.969407867077124,-0.795601273828955,-0.6320008450197933,-0.4871369622189706,-0.3636315976558873,-0.2607234932512623,-0.17642985250529344,-0.1099090075495602,-0.06302295900542351,-0.02731027301700064,0.0,-0.0037814121528348247,-0.0026051326190082665,-0.0014630025513110423,-0.0007597522598160369,-0.0003347569206249442,-0.00013953808988751974,0.0,0.0,0.0,-0.0005344455855656478,-0.0009814177284364182,-0.0018610114607104616,-0.0041034888690848394,-0.007907986737962636,-0.01444028627430929,-0.02408026003132112,-0.037202014324296394,-0.0540715303791025,-0.07306645402890295,-0.09822349674324748,-0.10367417681496661,0.0,0.0,-6702.728954281031,-6537.229824098989,-5345.650381331728,-3909.317501651264,-2570.7057626810565,-1409.1523470470518,-460.1700972742695,0.0,-1.3990906829886347e-12,-1.3377016698114753e-12,0.0,-3528.0816968697163,-7448.24563430349,-11997.375140127953,-17393.58363675861,-23810.622198636855,-31152.965401545902,-38155.58565943108,-38264.04931396575,0.0,-69098.71462830319,0.0,-54770.67932845707,-45878.04211339041,-31701.070104146576,-19087.579579493377,0.0,-20301.0117698376,-31420.421102197302,-36327.872553236775,-37530.80654061867,-36661.62629531653,-34786.353211596055,-32605.183346480546,-30592.020947131732,-29102.7847589012,-28461.100735112243,-29022.757034383594,-31173.999056451106,-34837.11013934338,-35508.02386290547,0.0,-20966.587110381293,-6184.180936344168,0.0,0.0,-6556.008905482382,-8303.041523845754,0.0,-24736.673141945692,-38229.21255991337,-42591.865995479544,-41448.43050688633,-37567.256829141996,-32625.561705653654,-27528.307582051806,-22720.76146132134,-18391.052902289888,-14581.71176783733,-11248.399297439279,-8296.22385631719,-5594.8284461196245
-2.4784062351276967e-07,-1.9016150490361796e-07,-1.4546868736869157e-07,-1.1093296436614052e-07,-8.430107073824455e-08,-6.377666957116656e-08,-4.7970993783446714e-08,-3.5853221528555704e-08,-2.6656626527955082e-08,-1.9717699067781438e-08,-1.4483339862569524e-08,-1.052843545085323e-08,-7.558401724535639e-09,-5.383932597377042e-09,-3.800593602068139e-09,-2.640837457810894e-09,-1.8007565227446183e-09,-1.2526224143390505e-09,-8.653358328882999e-10,-5.762266231293585e-10,-3.668597867167033e-10,-2.1249425226966753e-10,-1.4828258105558777e-10,-1.0492003235786328e-10,-7.009538058739435e-11,-4.1221050818330465e-11,-2.5660227010644047e-11,-1.632987740822213e-11,-1.0384866993185045e-11,-6.3875169062414425e-12,-3.34242683061569e-12,0.0,0.0,0.0,-0.8851481817385902,-2.04021330908783,-3.913640963186806,-6.707500122701065,-9.97090943182674,-11.090492160804866,-8.709605150888967,0.0,0.0,0.0,-2.5369480511915405,-1.9101813583823974,0.0,-0.0013473663960264144,0.0,-1935.5425518877307,-3416.5195744468415,-4231.188429599066,-4401.523415604566,-4037.5656820214435,-3278.444866974595,-2270.0953971993763,-1146.3862697555455,0.0,-9.867241930219759e-10,-1.0404564985862057e-09,0.0,-0.4650091429467153,-0.850524938524866,-1.1203413523426404,-1.2720469245299437,-1.3199807598831375,-1.2844565340228795,-1.1871839050349686,-1.0497608000977379,-0.8924784643232089,-0.7323637029694767,-0.5813452611347109,-0.4460600851146609,-0.32871843390647093,-0.22855132429849015,-0.14292039735531792,-0.0716227052416624,-0.033661416061771476,0.0,-0.00046378457267501414,-0.0015478557121588314,-0.0013608024177551295,-0.0008036648090720483,-0.00039085426722202136,0.0,0.0,-0.0009805441118944337,-0.001077820621596804,-0.00101055161417947,-0.001156364613826173,-0.0015302138674695635,-0.002359139245320589,-0.003975106778234201,-0.006512258679813014,-0.010047083050774503,-0.01405221314448895,-0.01727256268361626,-0.01783602326567969,0.0,0.0,0.0,-14280.675693860827,-23239.45274893222,-20273.685993025134,-14100.539960783199,-9089.150808081185,-5678.950677942105,-3349.169210645121,-1594.7204504664842,0.0,-1.9253525337942568e-13,-6.117964291049852e-13,-5.49870157881449e-13,0.0,-3252.187365135456,-6682.0236295118975,-10389.874179277911,-14374.79968958772,-18432.795562846208,-21885.423266963953,-22962.12851310331,-17672.471549241185,0.0,-18649.112242761035,0.0,0.0,0.0,0.0,-5457.366119889595,0.0,-21686.227544241898,-35518.63150080628,-41683.268501837934,-42815.95782389768,-41294.711135831836,-38697.95298313212,-35967.28711711115,-33667.20451471142,-32193.485978473105,-31945.910028770373,-33568.765645667576,-38593.06195895127,-51809.01123814089,-91338.47067288235,-235269.99415104656,-71497.98656883684,0.0,-7332.31407373245,-29329.2562949298,-14451.565613103585,-21920.99725200218,0.0,-42814.200607480234,-59003.3162677001,-59690.138041988146,-53834.42406778907,-45958.94557727657,-38032.53853050745,-30820.625790157825,-24564.745100705724,-19285.373532176505,-14898.57892202772,-11254.582710210914,-8172.3770972261655,-5453.827925771757
-2.361756365162456e-07,-1.8323793626008046e-07,-1.4177480386128717e-07,-1.0933805025527586e-07,-8.400294020872716e-08,-6.4249992628798e-08,-4.888768323645624e-08,-3.6991547980068335e-08,-2.7837866584370387e-08,-2.0832934267690877e-08,-1.5491345786208193e-08,-1.1430425736869465e-08,-8.361598741912107e-09,-6.068577069894617e-09,-4.368266706492121e-09,-3.1137029685019613e-09,-2.1987041191330175e-09,-1.5500021633562226e-09,-1.0856980263302932e-09,-7.487807829265229e-10,-5.060208023115198e-10,-3.3483464132469425e-10,-2.272514998634159e-10,-1.5572658986661702e-10,-1.0532269955100006e-10,-6.912859567973427e-11,-4.5089979819046645e-11,-2.927441563109964e-11,-1.882207365962597e-11,-1.1822773802003741e-11,-6.982190416616599e-12,-3.4911576754897888e-12,-1.6060225423892539e-12,0.0,0.0,0.0,0.0,0.0,-3.6355180992677,-4.57116296524406,-3.5586416009036728,-0.9537982874816638,-0.25655154902298255,-0.07240790861026633,0.0,-0.5214418147750128,0.0,-0.005028439846381635,0.0,-3330.3496890877677,-5453.686092123045,-6383.854661726156,-6375.775562376866,-5664.798812304479,-4467.715467409516,-2998.7414047976454,-1462.5244505756702,0.0,-3.7754106032598023e-10,-3.872143927456681e-10,0.0,-0.5892280095518662,-1.0255684577069073,-1.2792100850985022,-1.3779820126600117,-1.363796423313488,-1.2746448171825164,-1.1401149975835534,-0.9824403938001509,-0.8183814871484975,-0.6600298125910325,-0.5149564114349129,-0.3870396831984912,-0.2766307285568454,-0.18184297268090954,-0.09507770737582577,0.0,0.0,-8.996101805976683e-05,-0.00030728257854122613,-0.0005854237053703572,-0.0004865565307813717,0.0,0.0,-0.002550903361970077,-0.0029958054041385636,-0.00284435582598093,-0.0023201867603133124,-0.0018080212212949027,-0.0015502473880900111,-0.0016239338822950735,-0.0020702248748681296,-0.002925540318718363,-0.004118858152280721,-0.005183574104486755,-0.0048089468122439255,0.0,0.0,0.0,-5662.3650216269725,-14702.34916039564,-33883.250026511094,-58403.44930884293,-37052.02230810409,-20502.09321792748,-11231.462212267714,-6368.165191390851,-3552.299951490839,-1620.5602441737633,0.0,-1.583445844127184e-13,-3.0568962217043224e-13,-2.4998253260933624e-13,0.0,-2798.644134160211,-5637.787339330733,-8505.298257884075,-11282.945379468156,-13660.337096196306,-14993.803590360387,-14135.03357677704,-9463.708369895692,0.0,-5497.734342740942,-1472.607413234181,-392.69531019578164,-98.17382754894541,0.0,-2741.8849000650034,0.0,-30925.266906323697,-47284.608854948,-52070.61212941099,-50755.04511730231,-47003.30744098102,-42743.460467989455,-38898.80762412051,-35916.0240161297,-34058.04461150943,-33560.287755828576,-34713.33356056509,-37820.471895545495,-42467.402181386606,-42766.85343943649,0.0,-29755.365013919527,0.0,0.0,-95533.14549288318,0.0,-64929.38187105941,0.0,-87516.8130202765,-95279.71386142075,-83330.94583698663,-68240.18214500851,-54401.56288167144,-42725.02104894564,-33156.911947370274,-25432.219619171075,-19287.117203686295,-14472.647677889356,-10698.975524153211,-7684.873896606888,-5189.107844958919
-2.0991595536904205e-07,-1.6483979976175743e-07,-1.290545415633165e-07,-1.006414925868349e-07,-7.812264721418474e-08,-6.033267750017941e-08,-4.633819855462478e-08,-3.5387420571809734e-08,-2.6870357562519616e-08,-2.0284825633014356e-08,-1.5218683278194237e-08,-1.1340322968895636e-08,-8.388990436657364e-09,-6.160510234038322e-09,-4.490193185690215e-09,-3.247003590714586e-09,-2.3303548220379045e-09,-1.6629840937045232e-09,-1.1786733262112266e-09,-8.271776799797338e-10,-5.736079983105308e-10,-3.9357201087765106e-10,-2.701621872238342e-10,-1.8541212770649633e-10,-1.2634023207896246e-10,-8.488065253663725e-11,-5.629668095889783e-11,-3.685573164034949e-11,-2.3806238214109872e-11,-1.5099314226746652e-11,-9.272403359081282e-12,-5.3764177433600105e-12,-2.9329324942416027e-12,-1.3731497959695206e-12,-6.923976710984318e-13,-3.6534717197041586e-13,-1.9421354798630043e-13,-9.133472216131672e-14,0.0,0.0,0.0,0.0,0.0,-0.033080085418082765,-0.05991243306206473,-0.17558590071765423,-0.05696680364551621,-0.018766392989500127,0.0,-5932.170112340296,-8684.020443231413,-9474.76856280565,-9052.925359872266,-7778.138537410091,-5928.876785561348,-3794.630304006018,-1704.9701277494894,0.0,-1.3622565553627707e-10,-1.308600120704863e-10,0.0,-0.8663344375538424,-1.383310797652395,-1.5929485176844498,-1.596874617698113,-1.4825781035282872,-1.3102113138101454,-1.1161908743165776,-0.9215042903708154,-0.7385772778795976,-0.5744176488112434,-0.4314108888154168,-0.3105115076875459,-0.20892182444151003,-0.12711213049247685,-0.055547459467075656,0.0,-1.5161969335915752e-05,-5.25614936978413e-05,-8.996101805976687e-05,0.0,0.0,0.0,-0.005224188957883067,-0.007207808043741744,-0.0065879624286032485,-0.005080887027577411,-0.0035505493723806125,-0.0023510991225968174,-0.0016126698349438954,-0.0013450493987525905,-0.0013722860531384922,-0.001537971469490401,-0.0018540595061047492,-0.001759408402647876,0.0,0.0,-951.8038121987815,-2767.7314781729706,-7947.11092611225,-19263.7815934445,-48146.525942944965,-139439.0721518243,-49028.86071262083,-19624.348390554915,-8966.439631671343,-5009.94792386275,-2871.30515975362,-1335.2205747377302,0.0,-1.3515346210101764e-13,-2.0263494255469086e-13,-1.443703503854646e-13,0.0,-2304.6018321746556,-4565.183335766749,-6710.586133459499,-8591.346474204527,-9931.803852110477,-10294.420421504248,-9120.49383374877,-6047.32835356454,-1979.1365171332734,-1869.2177149685538,0.0,0.0,0.0,0.0,-5510.173480370419,0.0,-54730.2312261049,-70623.92488325102,-68559.52604355573,-61130.303074919546,-53220.013042800514,-46373.77382372418,-40968.458895251766,-37040.03931417743,-34562.38069560634,-33523.862822469426,-33903.808945218705,-35508.08988127901,-37473.27215242354,-37261.54090347701,-31674.45496547849,-47523.47348684128,-70866.76602195943,-146534.41354130208,-352803.32567660295,-345300.0671098885,-237796.53023223553,-305867.94421871484,-211973.33761220612,-151267.7803207215,-110113.74929953137,-81393.79579358955,-60682.10275545799,-45309.070836236526,-33649.78133120972,-24720.104224925068,-17958.227985511083,-13005.919061692719,-9383.797811907807,-6679.035120090904,-4590.789453701158
-1.7187415869786755e-07,-1.3715076585685954e-07,-1.0896207004535218e-07,-8.605073131625224e-08,-6.75134785624378e-08,-5.261987160432743e-08,-4.0745012911073974e-08,-3.134957819087419e-08,-2.397131746158298e-08,-1.8217327424224013e-08,-1.3758238725121639e-08,-1.0323192424233097e-08,-7.693529802079056e-09,-5.694280244144187e-09,-4.184992211697916e-09,-3.053763386769244e-09,-2.212727484707781e-09,-1.5929060632952173e-09,-1.1388335048925363e-09,-8.076486125170028e-10,-5.676615001074044e-10,-3.956832166766319e-10,-2.7441311046610313e-10,-1.894195016698551e-10,-1.2974544853121498e-10,-8.775710143564089e-11,-5.836035984417976e-11,-3.8045591760422486e-11,-2.4447833331800794e-11,-1.5495841533144793e-11,-9.631691050448885e-12,-5.809177445135392e-12,-3.3761398955312473e-12,-1.8672690186954412e-12,-1.0310937165423906e-12,-5.747774688472762e-13,-3.201722978411697e-13,-1.7112534067073062e-13,-7.876924334259393e-14,-3.8540683480007146e-14,-1.909674463592853e-14,-8.36982097016272e-15,0.0,0.0,-0.030983746112521963,-0.06402255138802311,-0.033514920874910495,-0.013070328466102656,0.0,-11714.310317042005,-13875.457005656664,-13778.273786392763,-12583.018776896459,-10465.953191902274,-7675.022833419766,-4545.93289791559,-1562.7257564162696,0.0,-3.6501549748641745e-11,0.0,0.0,-1.4927989430111086,-2.04839177766438,-2.1123985702887906,-1.9339898369197022,-1.6594300592914037,-1.3674314602132003,-1.0929328955017958,-0.8488086154869358,-0.6400056851878346,-0.46765261595892665,-0.32575798732796524,-0.2146736342947656,-0.12143293102917195,-0.062136265380412205,0.0,-2.021595911455432e-06,-8.086383645821734e-06,-1.5161969335915759e-05,0.0,-0.002276244028652498,-0.005626981669359564,-0.009527874827677562,-0.013688947787790527,-0.014468177426510584,-0.011067349238955278,-0.0073406804833448525,-0.00445002457903491,-0.0024331560617678587,-0.0012042834303361636,-0.0007713078246329005,-0.0005358984694428482,0.0,0.0,0.0,-147.5768278070709,-391.36684641200293,-1039.4837706221554,-2172.011174380852,-4094.5656112045604,-6259.140344325139,0.0,-34859.76803795608,0.0,0.0,0.0,-1833.8817126351864,-1587.7521889231605,-849.016895023538,0.0,-1.7963432143666545e-13,-2.2532633556185288e-13,-1.2486392637783282e-13,0.0,-1854.5798587716622,-3607.758038102109,-5180.516465982652,-6440.05053177998,-7181.111416536823,-7131.580409797364,-6005.192983149252,-3625.974693480425,0.0,0.0,-439.172428205392,-462.2570615088849,-1409.8558178301475,-5177.166209811706,-19298.809021416677,0.0,-117371.73311484492,-111921.33340839547,-90413.26408664136,-71986.62809601966,-58372.667831577295,-48563.162888855004,-41561.21481898493,-36713.29364972193,-33627.57603426907,-32068.973893224076,-31869.949516561293,-32834.8065319283,-34656.05564355154,-37131.58305656953,-41912.80547159565,-57797.307946007684,-89409.17705969431,-162467.56246664596,-343315.6689056078,-263807.45638479013,-235088.72772927955,-264352.46194478485,-303240.81288911257,-187704.32050972912,-124462.47524682956,-86539.14897436248,-61623.98151033677,-44179.378209335206,-31413.03831630941,-21840.187963810673,-14819.771451742312,-10209.002771464453,-7151.261541695926,-5056.679318148976,-3584.476122179834
-1.253614973276504e-07,-1.0292703492428688e-07,-8.359224144658581e-08,-6.708588407177885e-08,-5.326066411618551e-08,-4.188831744463837e-08,-3.267240329532905e-08,-2.529456181974817e-08,-1.9448006669308893e-08,-1.4854927877665569e-08,-1.1273751774232956e-08,-8.50067820115711e-09,-6.367656103538458e-09,-4.738088728965204e-09,-3.5017320303482126e-09,-2.5703302600815675e-09,-1.8738856668252973e-09,-1.3570791699500317e-09,-9.761060176029047e-10,-6.969217651306133e-10,-4.937061729569578e-10,-3.4708624527867163e-10,-2.423875363112013e-10,-1.681073199880488e-10,-1.1546495894932407e-10,-7.804194483680397e-11,-5.134206522604979e-11,-3.2518442228211564e-11,-2.044366182139886e-11,-1.2804527524796842e-11,-7.949341865204619e-12,-4.852461091676972e-12,-2.895180624336096e-12,-1.68869266690556e-12,-9.899307076275952e-13,-5.824966890941866e-13,-3.40572833894838e-13,-1.942250993567209e-13,-1.0541094922985514e-13,-5.629674594698996e-14,-2.947647409635268e-14,-1.4382539245802572e-14,-5.2158851565890496e-15,0.0,0.0,-0.016005637847005778,0.0,0.0,-34429.96491036564,-27049.61415017106,-21325.223475960476,-19179.850800212287,-17034.922769418536,-13827.63261988277,-9759.328458299857,-5151.352697820304,0.0,-2.6206240845178682e-12,-9.780543458289902e-12,0.0,-2.038968664964311,-3.0564695568262112,-3.2050587997052267,-2.87426414888663,-2.367256100400503,-1.8537208365044242,-1.4071515722494568,-1.0393006319904694,-0.7407915908872974,-0.5049842314258789,-0.3304291425086634,-0.189294810242752,-0.10099211113437939,0.0,0.0,-3.4682766328284927e-07,0.0,0.0,0.0,-0.0009319259312410162,-0.0034779944452504284,-0.010703807821108198,-0.018795569853560158,-0.02553554993909089,-0.02590860463555479,-0.015872576617362428,-0.008764461087811815,-0.004475712398646315,-0.0017272171151035435,0.0,0.0,0.0,0.0,-36.529834176294834,-85.8986343549691,-198.94046481628067,-378.40678721878555,-642.7532494969848,-786.2638375237224,0.0,-1678.2141726515003,-453.7163462808627,0.0,0.0,0.0,0.0,-737.8267377548356,-796.8049882802983,-473.0948164332611,0.0,-3.5805748808380054e-13,-3.9417215187823046e-13,-1.297590195640158e-13,0.0,-1505.959564809885,-2830.7524918873737,-3963.67116058902,-4807.227770395918,-5221.01087245947,-5045.596817999139,-4142.722995570446,-2451.3774372079074,0.0,-323.60816282817075,-1294.432651312683,0.0,0.0,0.0,-66507.89639548458,-128853.73830104701,-302835.3678248793,-169276.41154884463,-109185.56879859456,-78030.27739094045,-59720.86729863402,-47944.9950811336,-39999.94384211107,-34624.34443145629,-31165.655898523946,-29254.50719959653,-28672.2086958741,-29305.131086321348,-31184.560833284795,-34695.93020765391,-41047.875918326914,-52343.775765899496,-66505.0718041642,-70610.99035997973,0.0,-131525.36179438475,-174398.46235530783,-213212.3629420329,-300703.3561435494,-171846.21358225372,-113492.68220369662,-78676.3433466956,-55095.29610219315,-38371.42217445985,-25982.805760883708,-16407.837862267403,-9271.667086184314,-5859.059030727953,-3955.5662652633937,-2811.9444886299993,-2235.5323711079004
-7.44517415300388e-08,-6.560363506735448e-08,-5.5393976746095365e-08,-4.543989940912108e-08,-3.6554976386778535e-08,-2.9000330763474164e-08,-2.2761721006501288e-08,-1.770825912402188e-08,-1.3671219518688764e-08,-1.048062564326709e-08,-7.981162293290309e-09,-6.038112502869179e-09,-4.538327682149407e-09,-3.388686537986762e-09,-2.513516920771944e-09,-1.8519399564804107e-09,-1.355405752637027e-09,-9.854189321346062e-10,-7.115896304826167e-10,-5.102262574789933e-10,-3.631551813361768e-10,-2.565680551884998e-10,-1.7994346952568515e-10,-1.251572830317923e-10,-8.596512244836567e-11,-5.760365374115585e-11,-3.6447513998271245e-11,-2.0242450106986818e-11,-1.200384420206542e-11,-7.329264880258476e-12,-4.508687794416179e-12,-2.7561444323564845e-12,-1.6634288434293957e-12,-1.0023903170852093e-12,-6.5743975804688e-13,-4.24705746057136e-13,-2.65397249318243e-13,-1.5979127364980466e-13,-9.235270828365676e-14,-5.175887698763883e-14,-2.8129866559833747e-14,-1.4467976761580977e-14,-6.481001381042569e-15,-2.010259320635658e-15,0.0,0.0,-2.2283399118830585,0.0,-110670.24549129151,-40728.95789731612,-25195.971947801903,-24580.98316907737,-22549.18888068263,-18050.326059910425,-12383.305682076587,-6300.149435065771,0.0,-7.019528797815719e-13,0.0,-3.074033503192366,-5.0994051030310334,-5.489051819624199,-4.841109715443686,-3.812343125152,-2.8070495792912555,-1.9810456140763346,-1.3681533602897336,-0.9163264693233285,-0.570072884645906,-0.3087105071197202,-0.1597849124070959,0.0,0.0,0.0,-3.717196008390346e-07,-1.387310653131397e-06,-4.830695348403704e-06,-1.7935470740483422e-05,-6.691118761352999e-05,-0.0002497092797136365,0.0,-0.014914685316262642,-0.029415046826363988,-0.04374907747945808,-0.04775811455925526,-0.017749891507127837,-0.007368874851893661,-0.002961146812634994,0.0,0.0,-7.593725049155672,-15.589318742999614,-29.319774881282655,-60.22070235021022,-108.12423842730095,-183.87960988429714,-280.56658814987367,-366.8586026232759,-330.2909262170527,0.0,0.0,-136.6512124719505,-46.30557062047668,-16.388057416737627,0.0,0.0,-320.6202501038578,-388.54621000993575,-246.55738242920805,0.0,-8.584234790203273e-13,-8.635457643032687e-13,0.0,-463.0306110948148,-1338.5059085805042,-2245.6212040484806,-3036.187914090137,-3604.1785167552043,-3850.1074849060037,-3687.0729941692725,-3068.724743925488,-2036.8120597807588,-803.1350121908307,0.0,-4414.950014217169,-16365.367405555995,-61046.51960800681,-210203.71622465906,-117879.03825947463,-146071.6889838242,-283457.5648553121,-153163.37616350927,-99022.3221679518,-71228.0453705136,-54535.52889088472,-43496.00629493434,-35869.22103686943,-30618.48433546821,-27156.1959287739,-25111.19031076401,-24259.246981017222,-24528.948284198195,-26081.126395612402,-29419.701022434427,-35238.992228158604,-44024.84739509923,-53656.3440310832,-53471.32716910879,0.0,-87895.52843744117,-117767.3969555342,-113395.17132448968,0.0,-85484.49547204048,-78985.69663900853,-59578.246106531275,-41709.43737728151,-28228.208625428444,-17738.924690499163,-8536.690638191641,0.0,0.0,0.0,0.0,-801.5908318328792
-2.6023382149885137e-08,-2.964178706975293e-08,-2.6940131062019048e-08,-2.2724760432453935e-08,-1.8519011258875724e-08,-1.4796308216444114e-08,-1.1665890843575223e-08,-9.105534151481307e-09,-7.047986638433571e-09,-5.415192883651795e-09,-4.132159252978632e-09,-3.1322818350312946e-09,-2.358855584325023e-09,-1.7648128201576424e-09,-1.311709158349233e-09,-9.68506892491378e-10,-7.103784551546798e-10,-5.176011755049169e-10,-3.746073147416224e-10,-2.692384529875345e-10,-1.9212023973601134e-10,-1.3608732462519895e-10,-9.566100357989754e-11,-6.661322017135737e-11,-4.5634594075646065e-11,-2.996003368416634e-11,-1.6601886920609395e-11,0.0,0.0,0.0,0.0,0.0,0.0,0.0,-2.127322614584409e-13,-1.9348928779942339e-13,-1.365191436911851e-13,-8.719003765300883e-14,-5.244973327470108e-14,-3.0256187164295544e-14,-1.681613839606581e-14,-8.878499860790915e-15,-4.229884285833387e-15,-1.5600359016172612e-15,0.0,0.0,-8.91335964753225,0.0,-31763.733220204373,0.0,-14148.723248853645,-31398.92104761268,-30530.523524324188,-23441.177056999706,-15423.418775030299,-7665.939360366198,0.0,-1.8718743460841916e-13,0.0,-7.196728909738431,-9.795566424343257,-8.959222903195867,-6.857985117293319,-4.726949056986429,-3.067553477536186,-1.8952586802199245,-1.1680897855098145,-0.6877790003672051,-0.31446297125327777,0.0,0.0,0.0,-6.637850014982761e-09,-2.6551400059931044e-08,-9.956775022474141e-08,0.0,0.0,0.0,0.0,0.0,-0.006576892425483444,-0.019539886617578384,-0.040200854656175074,-0.07228759859312221,-0.1036248846148803,0.0,0.0,0.0,0.0,-6.618086902686145,-14.785581453623076,-25.44377504156013,-41.46907843192078,-66.90896191596245,-102.49800711972738,-147.88714814373333,-193.12135287313617,-213.82364662919235,-168.04126472121243,-42.01031618030311,0.0,-46.58293298646259,-32.1830125932186,-19.246659046473827,-17.560308406059367,-43.417090264179876,-156.10805265066014,-190.20221922637865,-124.58850327363547,0.0,-2.2120906636942906e-12,-2.2015874263145534e-12,0.0,-513.616535798755,-1139.412254368836,-1777.0385016359082,-2331.2807749678445,-2723.19089762876,-2888.1675562400674,-2783.8629298464602,-2408.2909261814743,-1824.0110457988098,-1175.7279889825638,-645.0097651188605,0.0,0.0,-17616.99480181222,0.0,-48732.85143393071,-54096.41451946298,0.0,-60897.20608192854,-62512.29833918982,-53324.05303227743,-43697.19659945696,-35634.28017084963,-29362.44967496409,-24824.17594477322,-21729.453170339442,-19774.81113366839,-18724.640633232593,-18470.28867384181,-19191.295442532202,-21662.7552583128,-26463.544576773842,-34860.27755525562,-50624.12975596059,-89617.97428537221,-225881.46585704357,-102289.35499984572,-95380.42570489812,-122600.92540039173,-221552.42842179368,-91106.0716669001,-57387.36277376634,-38941.507063140096,-23935.99867497381,-15093.050259473841,-8207.99373749325,0.0,-0.02504365818654611,-0.0347404403855699,-0.033061165395063596,-0.021022571962552042,0.0
0.0,0.0,0.0,0.0,0.0,0.0,0.0,0.0,0.0,0.0,0.0,0.0,0.0,0.0,0.0,0.0,0.0,0.0,0.0,0.0,0.0,0.0,0.0,0.0,0.0,0.0,0.0,-2.698876621784247e-19,-2.7149035290926305e-19,-2.1412162105986956e-19,-1.5375124109156498e-19,-1.0345310554108221e-19,-6.380635519562425e-20,-3.141227730940824e-20,0.0,0.0,0.0,0.0,0.0,0.0,0.0,0.0,0.0,0.0,0.0,-29.34029062504615,-33.425098678246,0.0,-16384.68738952599,-16887.508168949786,0.0,-56335.45424819552,-44732.80711200175,-29760.43986873392,-18203.253000678706,-8940.189231368724,0.0,-4.679685865210479e-14,0.0,-15.9173157114181,-17.926908781407693,-13.694288251522696,-8.904658793547293,-5.16991450796421,-2.840956593647135,-1.3643458437573632,-0.7211681011623945,-0.3522367753823999,0.0,0.0,-2.443778213503598e-10,-6.109445533758995e-11,0.0,0.0,0.0,-1.0738550882809722e-05,-4.007523154870416e-05,-0.0001495623753120069,-0.0005581742696993235,-0.002083134703485287,-0.00676768308435539,-0.01646711407239237,-0.039560886587635714,-0.10157557762197543,-0.29445382530714376,-0.9726148389917192,-1.9765000592563984,-3.4862896022638465,-6.1217049037233515,-11.686766157121507,-19.486738821090352,-29.931121537697052,-44.20380188887789,-63.44805976199144,-87.07167999191273,-112.04962269777268,-130.2080285697455,-127.27336629914487,-86.04016985830167,0.0,0.0,-17.497506880681264,-16.5968877194613,-10.855257769879719,-7.577484313583756,0.0,-70.19265100822425,-91.56611097128327,-61.59441143895517,0.0,-5.7883517494424095e-12,-5.730713277260745e-12,0.0,-452.02327773136875,-928.4880714601771,-1391.8397731584726,-1788.7057865165734,-2069.136742551923,-2195.5089125790455,-2151.9202427950268,-1956.5649851551395,-1675.2132082504427,-1430.756132821755,-1404.311071492878,-1870.4773548668845,-3762.1289516341867,-9421.459599242064,-10094.279723661852,-22955.952956785208,-21581.11766009703,0.0,-27913.149825015094,-36805.61207460154,-35858.67181994931,-31294.92430381606,-25981.468114043142,-21122.121547364084,-17586.31659832114,-15162.629674142257,-13533.96042033752,-12394.215744402956,-11436.270335404246,-10551.011442361794,-11576.479991510736,-14092.15326536835,-18328.58849318882,-24361.923152131323,-28494.974359375883,0.0,0.0,-38864.02546382088,-60075.6761503854,-78837.75373732901,0.0,-20516.1757260169,-14864.42069728925,0.0,0.0,0.0,-0.033786623541853925,-0.06543419236065626,-0.08085693796071662,-0.07648164923217175,-0.05102912245516466,0.0
-8.278677229641408e-15,-7.065295720102226e-15,-5.539327746050267e-15,-4.170488318309885e-15,-3.0702299553423516e-15,-2.2299033521826125e-15,-1.6057213193338939e-15,-1.1496630377738234e-15,-8.198201763429162e-16,-5.827853775909279e-16,-4.1312741233293316e-16,-2.919985153540899e-16,-2.056687300157861e-16,-1.4425419850909483e-16,-1.0069042762321767e-16,-6.992861064058956e-17,-4.8332050326717845e-17,-3.3263738409252064e-17,-2.2811681329973486e-17,-1.559819679543775e-17,-1.0639991863841441e-17,-7.242412037896534e-18,-4.9194496226588396e-18,-3.334208487408078e-18,-2.255719373924389e-18,-1.5290355211859346e-18,-1.0579470658037015e-18,-8.080602958044359e-19,-6.019521283987579e-19,-4.3124489023865025e-19,-2.9743023776530823e-19,-1.962548258771396e-19,-1.2036003793200654e-19,-6.184275404200872e-20,-1.6570716003268768e-20,-4.440109971066348e-21,-1.1897238809966234e-21,-3.1878555292014593e-22,-8.54183306839603e-23,-2.2887769815695308e-23,-6.132748578820922e-24,-1.6432244995883811e-24,-4.4014941953260205e-25,-1.173731785420272e-25,0.0,-83.93606382193882,-95.44674444040577,0.0,-16887.508168949786,-51165.34528627316,-146640.94834165857,-149210.08883316765,-62304.8108067534,-32664.522305255527,-18688.964127581876,-9891.564564429993,-3438.5889046290213,0.0,0.0,-38.54562515452627,-32.300464738346726,-18.986362527939935,-9.896447297408947,-4.207093587675985,-1.7620125453307798,0.0,0.0,0.0,-6.630975704639601e-11,-2.4568164677756126e-10,-9.164168300638491e-10,0.0,-6.858616431091608e-08,-2.3037620678200758e-07,-7.773370473291833e-07,-2.878971982534726e-06,0.0,0.0,0.0,-0.0010066814598864357,-0.0019435911360604562,0.0,0.0,0.0,0.0,-1.6195054714033346,-3.447095795770028,-5.846953446075635,-9.31376385550805,-14.520534000986181,-21.543486135919768,-30.590170399259843,-41.966947823902295,-55.60779525121267,-70.29103038815948,-83.03163408569912,-88.38777240892821,-79.02162013934003,-48.84604841284931,0.0,-1.945773376228907,-6.810206816801175,-5.851773634065619,0.0,-1.894371078395939,0.0,-33.09644041095357,-44.275162211575015,-30.223031510901954,0.0,-1.5210603056814924e-11,-1.4932913933286245e-11,0.0,-365.98850366654307,-730.6769805820315,-1073.1267330212308,-1362.5658553880544,-1569.1413734833138,-1672.8111087291663,-1671.744143599462,-1590.8355633936146,-1489.5206692260665,-1467.7722625611357,-1671.0010331640124,-2315.4693963404734,-3756.5788524277978,-6212.434919859995,-7999.706338620136,-11415.563009451243,-9272.103164139919,0.0,-13949.781143530285,-20938.328314251932,-22010.097869102225,-19642.360681814826,-15874.546434142798,-11558.251802127972,-9236.339227005014,-7800.788507570937,-6804.185129136481,-5881.9915886374665,-4329.565481010428,0.0,0.0,0.0,0.0,0.0,0.0,0.0,-193.44263639400302,0.0,0.0,-33722.91037713697,-18735.50200603149,-9812.919433012097,0.0,0.0,0.0,0.0,-0.06971230180681434,-0.12204954975358963,-0.1467714698645565,-0.14097937111781614,-0.10661226862597482,-0.05148249315106508
-1.8422900967340357e-14,-1.444317790471723e-14,-1.0921526945788958e-14,-8.072395571846922e-15,-5.88052815087691e-15,-4.2436621340542035e-15,-3.04331888737914e-15,-2.173110655418483e-15,-1.5468322900069139e-15,-1.0981939216878629e-15,-7.777257563867147e-16,-5.491979190676404e-16,-3.8642220619995957e-16,-2.706576363973756e-16,-1.8857890134318634e-16,-1.3069196461242268e-16,-9.013585225702976e-17,-6.191122198031693e-17,-4.238479011520413e-17,-2.8941113987936064e-17,-1.9719358622031475e-17,-1.3410206665085856e-17,-9.101177965330745e-18,-6.161664953049083e-18,-4.159633487103545e-18,-2.8024756450156473e-18,-1.8946924462244354e-18,-1.3024543268368597e-18,-8.970129746426826e-19,-6.114755737306654e-19,-4.084699938538779e-19,-2.6377592227016146e-19,-1.5953621661325366e-19,-7.902798492335133e-20,0.0,0.0,0.0,0.0,0.0,0.0,0.0,0.0,0.0,-2.93432946355068e-26,0.0,-210.95722022230387,-264.42581526143863,-171.0107721097179,0.0,-24245.416465534534,-45816.32057586498,0.0,-22611.824976588632,-19903.874417952917,-13996.516639963282,-8498.515994140347,-3862.7910540860917,0.0,-158.70359461130047,-105.96472016834026,-53.74296248951298,-20.054249824481378,-7.48767428047258,0.0,0.0,0.0,-1.303825427201518e-12,-5.215301708806072e-12,-1.9557381408022772e-11,0.0,-3.175607852127475e-09,-1.1786014578446052e-08,-4.396845046165673e-08,-7.558161548793095e-08,0.0,0.0,-1.441865580971803e-10,-3.844974882591475e-11,-9.612437206478688e-12,0.0,0.0,0.0,-1.3410654624257473e-05,-8.774175363487665e-06,0.0,-2.0583112508515913,-4.345424206344746,-7.140664530760617,-10.765863071247038,-15.538119855395397,-21.576501322342697,-28.919126099520263,-37.466023756258785,-46.72514303079746,-55.45301222381343,-61.39811084793617,-61.28980684092825,-51.57929343643768,-30.32240365375557,0.0,-0.9728866881144534,-1.945773376228907,0.0,0.0,0.0,-5.942870190580546,-17.917948424015,-22.21506595316128,-15.022552393077634,0.0,-4.0121146544531875e-11,-3.879033939906989e-11,0.0,-281.25375635277203,-555.1046141801748,-807.4243229563651,-1019.2895285310985,-1172.0517872641117,-1254.850005254845,-1271.4096594800405,-1245.5124555937916,-1224.2616426990737,-1279.8112150327086,-1496.4514022615633,-1963.8203449031976,-2736.282141876536,-3671.9948891499807,-4276.5477015074575,-5434.489578259711,-4091.7319870114043,0.0,-6947.646434854111,-10987.822169773674,-11601.030660392822,-9389.874120198225,-6316.105138585255,0.0,0.0,0.0,0.0,0.0,0.0,-0.07676104715418881,-0.30704418861675525,-1.1514157073128322,-4.298618640634573,-16.043058855225464,-55.862852066460924,-207.40834941061826,-773.7705455760122,-2694.2311964994274,-10003.154240421698,-37318.38576518738,-31406.17821397692,0.0,0.0,0.0,0.0,0.0,-0.12301303393190864,-0.2062802349824658,-0.2432000206262473,-0.23405209674868604,-0.18295808777993702,-0.0993177039783199
-2.8742377040152023e-14,-2.136298798563737e-14,-1.5631206560541417e-14,-1.1317038872411932e-14,-8.135824942264163e-15,-5.820898145778154e-15,-4.150781440709979e-15,-2.9526284065140555e-15,-2.0962044065783928e-15,-1.4854322627668953e-15,-1.0503837724584223e-15,-7.406451983297973e-16,-5.201645393190362e-16,-3.633752395372616e-16,-2.5227557673972937e-16,-1.741244942088851e-16,-1.1960817210866163e-16,-8.186050713978174e-17,-5.587514316259005e-17,-3.8062110419070904e-17,-2.5886121971262547e-17,-1.757787803508467e-17,-1.1913390620529205e-17,-8.051639872353964e-18,-5.418673976425063e-18,-3.6265411255486744e-18,-2.4158927472415337e-18,-1.6100515906758846e-18,-1.072169869604448e-18,-7.091744361874507e-19,-4.611982416493766e-19,-2.9084265273637462e-19,-1.7498092132749532e-19,-9.473296903814298e-20,-3.870767263621276e-20,-1.68103557567973e-20,-7.572346037323848e-21,-3.475114359959615e-21,-1.595640066874545e-21,-7.064306637237769e-22,-2.7159410108810296e-22,-7.242509362349411e-23,-1.8106273405873528e-23,0.0,-251.5681832164352,-495.46700180583935,-580.2885242733282,-419.6172731774335,0.0,0.0,-12378.917496266844,0.0,-8238.614681648216,-10342.633750004228,-8894.712020177987,-6243.191718082026,-3514.0593175749977,-1331.1715847359371,-528.8496582768616,-172.86669841802137,-56.65241522688358,0.0,0.0,0.0,-1.3602790338713472e-13,-2.1437733102009035e-13,0.0,0.0,-6.704466876889012e-12,-1.676116719222253e-12,0.0,0.0,-1.9920007469333847e-08,-2.7981804708059453e-08,-7.497701021053375e-09,-2.0089993761540454e-09,-5.382964835628064e-10,0.0,0.0,0.0,-8.427464513585453e-05,-6.839882778481592e-05,-4.486844313354223e-05,-2.168604682969319e-05,0.0,-2.2683153256582838,-4.735625247996747,-7.604417399375048,-11.070904043324088,-15.289581027005678,-20.305273198535367,-26.043808920219732,-32.252878070815115,-38.373740891904966,-43.39776462836064,-45.817990241303825,-43.794050670410954,-35.68334311172689,-20.86427276573528,0.0,0.0,0.0,0.0,-1.1290598301369248,-2.4788857185541615,-5.853532338307183,-10.417417141364623,-11.644600783977461,-7.652112108247305,0.0,-1.0648364372224482e-10,-1.0010729711846284e-10,0.0,-203.92190756437026,-401.0633968295308,-582.1764160929569,-735.1161485158632,-844.9262417871902,-903.1274655460617,-913.5320334720642,-895.5429568024375,-882.2022309437289,-930.7595526090619,-1071.1730159463352,-1307.0784391342195,-1552.734481025169,-1462.7147933559365,0.0,-1954.115615068738,-1660.335205645988,0.0,-2852.9824261124854,-4464.2832695958305,-4016.328482497163,0.0,0.0,-0.001761126295946787,-0.0009437830662894321,-0.000252879673264154,-6.773562676718412e-05,-1.806283380458243e-05,-4.515708451145608e-06,0.0,0.0,0.0,0.0,-4.010764713806366,0.0,0.0,0.0,0.0,0.0,-74141.3002292139,-69570.82508468881,0.0,0.0,0.0,0.0,0.0,-0.21605959893850885,-0.3368583356183263,-0.38569628090949915,-0.3690709074709336,-0.29185028176689815,-0.1628302349823301
-3.7366182912769233e-14,-2.6635190437138816e-14,-1.8923272438327407e-14,-1.3428728414995225e-14,-9.524834599989657e-15,-6.7533240660842695e-15,-4.7862803231685696e-15,-3.390417123349368e-15,-2.399924667025707e-15,-1.6969469503429035e-15,-1.1977318723502828e-15,-8.428345624740901e-16,-5.902155132091266e-16,-4.104032056929054e-16,-2.830236718695844e-16,-1.939222633747268e-16,-1.3231183482894985e-16,-9.004749130755834e-17,-6.119316497630346e-17,-4.154606255449497e-17,-2.8185140808863147e-17,-1.9101792883461073e-17,-1.2922866609347444e-17,-8.712829939412505e-18,-5.8368814206940674e-18,-3.869122133512454e-18,-2.532285826517141e-18,-1.6496894190206978e-18,-1.0724404769117747e-18,-6.918540597653129e-19,-4.363058838198033e-19,-2.6341552569846515e-19,-1.5481184692221005e-19,-8.621529726551251e-20,-4.3287365749910763e-20,-2.0961404353652585e-20,-1.0003914032538479e-20,-4.7324713356400684e-21,-2.201015243814788e-21,-9.5848848693246e-22,-3.0752064700514074e-22,0.0,0.0,0.0,-510.8057310599031,-939.0540795112925,-1141.6440068486038,-927.1697963266893,0.0,-924.8373523005979,-3699.3494092023916,0.0,0.0,-4333.333880237799,-4996.505972662415,-4065.479540434769,-2619.0829133959364,-1281.777363091889,-452.6567553421876,0.0,0.0,0.0,-2.198228550189657e-14,-8.792914200758628e-14,-3.2973428252844853e-13,-7.214814206932267e-13,-1.4247688208342012e-12,-2.946627647606503e-12,-5.584369380311025e-12,0.0,-5.550113212740434e-10,-2.0711965072233123e-09,-7.729774707619207e-09,-8.927894853919666e-09,0.0,0.0,0.0,-0.0017003467540113654,-0.0010240105299269724,-0.0005092630911782764,-0.0002686997527586022,-0.0001444522228698669,-7.597824329540232e-05,-3.3101568821742875e-05,0.0,-2.2793248037847977,-4.724344060608911,-7.470475775418745,-10.62375467566859,-14.24402701076786,-18.311201524573377,-22.697958312008186,-27.12793871487695,-31.119177837646657,-33.94631515642031,-34.68203481850756,-32.38506248768484,-26.49575557432368,-17.45134429745865,-7.616719857097996,-3.8720156335180653,-2.2938768958076268,-1.730448370781988,-2.037353601993538,-2.9329507057725372,-4.574956302729399,-6.253587019158844,-6.29380793313664,-3.941295255934128,0.0,-2.8570613122598994e-10,-2.5515520535254016e-10,0.0,-133.3704770751782,-263.0506494806212,-385.1017960700682,-494.0724076522074,-569.4095658227243,-599.2015816701474,-584.0480520597173,-540.9251072001655,-478.2447716643423,-489.8517485134751,-550.4026697804964,-640.5859146621752,-704.8625497339851,-626.129803248596,-336.9418699044621,-721.6376763692525,-595.4932205038101,0.0,0.0,0.0,0.0,-0.0774218213948915,-0.0208806358780973,-0.006100722117497719,-0.001761126295946788,0.0,0.0,0.0,0.0,-3014.0935146414795,-5012.907799896672,-6573.342068588627,-6661.0431679707535,0.0,-22808.929893823995,-41088.87654480597,-60351.73832891592,-70253.34962532927,0.0,-189675.99006697943,-172735.82189556444,-89281.43190480815,0.0,0.0,0.0,-0.20080129941105393,-0.4043670262040555,-0.5393972276431441,-0.5936558599228071,-0.5646849704589257,-0.45254189683458307,-0.26015295418417955
-4.213534952520797e-14,-2.888831841182126e-14,-1.9997964340634175e-14,-1.3949767749251902e-14,-9.781460976614975e-15,-6.881283195400697e-15,-4.8505986625306624e-15,-3.42283509668914e-15,-2.4161301878321645e-15,-1.7046989992287288e-15,-1.200762204125715e-15,-8.427456660071536e-16,-5.874597453504746e-16,-4.049983981556491e-16,-2.7549364167097617e-16,-1.8622905259148794e-16,-1.2566941252485265e-16,-8.482445828519834e-17,-5.730396288057047e-17,-3.874383401374238e-17,-2.6206585826233983e-17,-1.7721286080549033e-17,-1.1963452993987e-17,-8.039931855254542e-18,-5.3468996334262486e-18,-3.480780161289934e-18,-2.194439006293878e-18,-1.3839797819779917e-18,-8.760485592566393e-19,-5.49495442142223e-19,-3.2875570816605848e-19,-1.7170171931547272e-19,-9.463564339736725e-20,-5.202900735178624e-20,-2.72650887442652e-20,-1.37439818753638e-20,-6.749434403537418e-21,-3.249841706247391e-21,-1.5174610858120784e-21,-6.189873931861346e-22,0.0,0.0,-1454.023431342715,0.0,-852.6006615118881,-1608.2995783308286,-2120.0636272831107,-2147.417905280722,-1389.3130332163305,0.0,-1493.642788242125,-1137.6108718830546,0.0,-1994.195798284554,-2692.4984497991054,-2403.1375575986995,-1615.0154324820903,-724.1981988934948,0.0,0.0,-1.6169743392048066e-15,-2.6876552485281347e-15,0.0,0.0,-3.734986640258464e-13,-9.17045248390167e-13,-2.0309662150370752e-12,-4.777372389280787e-12,-1.2686382996748585e-11,-4.038379021740253e-11,-1.488487778728615e-10,0.0,0.0,0.0,0.0,-0.029290438825753665,-0.019522726915944342,-0.005777376486118489,-0.0018864322745182481,-0.0007443420820275312,-0.000336809051850411,-0.0001647320676406472,-8.149073835645728e-05,-3.474198516187598e-05,0.0,-2.1246398288719957,-4.411950415235355,-6.929386966022433,-9.709611873163665,-12.7515708158238,-15.997547576982093,-19.308884088362692,-22.441740639037857,-25.028716587384395,-26.586283341166393,-26.57877138862127,-24.56840888749718,-20.463272400424337,-14.828628992677654,-9.14351949741527,-5.577465781166639,-3.5730435789304527,-2.590562985326787,-2.356955501282702,-2.6406071998130516,-3.2597551476790336,-3.7281666994047113,-3.3357486734761284,-1.819260982352564,0.0,-7.811856758291889e-10,-6.348073930657164e-10,0.0,-66.50935125572143,-132.6669279477075,-201.1077110544874,-286.662120200174,-339.438032181352,-340.22124325208694,-282.53348589649215,-205.8646482741644,0.0,0.0,0.0,0.0,0.0,0.0,0.0,0.0,0.0,-12.837975237488426,-15.011845062358883,-4.022412459942466,-1.077804777410984,-0.28880664970146885,0.0,0.0,0.0,0.0,-1209.0471043365878,-2416.7137124844244,-4113.040738609007,-7043.466258669246,-10464.195616356581,-14619.417306487083,-20070.83060329439,-28659.624766770277,-50146.84303049002,-81194.83795648394,-130064.72714552842,-220661.66017240114,-437342.8814436359,-511826.8381431395,-342415.0405257813,-184389.9057236682,-65213.92333492225,0.0,0.0,-0.39883817144042527,-0.6612099788239049,-0.822707688827836,-0.8848449606801051,-0.8434712176077642,-0.6934793809286012,-0.42523968491991965
-4.035295626507097e-14,-2.6784769344304088e-14,-1.823049876313614e-14,-1.259091726476323e-14,-8.769958361817649e-15,-6.139749076372883e-15,-4.311996034864244e-15,-3.034194413044367e-15,-2.1370619883850827e-15,-1.5049566546141318e-15,-1.057872278916695e-15,-7.399261520783352e-16,-5.118794040299691e-16,-3.4663699990824034e-16,-2.2772344406718327e-16,-1.4983089279539604e-16,-9.931230439377452e-17,-6.627696642781188e-17,-4.445439424703772e-17,-2.991872479367011e-17,-2.0176082401781377e-17,-1.3613312618514086e-17,-9.169727430796978e-18,-6.1365448541924184e-18,-4.030005096466452e-18,-2.512659871927154e-18,-1.380710255390446e-18,-8.157421433407515e-19,-4.98278535994568e-19,-3.013234413808815e-19,-1.5751978738673498e-19,0.0,0.0,0.0,0.0,0.0,0.0,0.0,0.0,0.0,-81425.31215519205,-21810.351470140726,-5816.09372537086,0.0,-1291.297336656827,-2521.47994501703,-3582.8930186722964,-4153.1251642967645,-3409.834227584604,0.0,-1137.6108718830546,-3056.8006992900937,0.0,-950.9508631013108,-1376.1544706507539,-1239.5568076788336,-713.643060040231,0.0,0.0,-1.2838799343281387e-15,-3.780242108291092e-15,-9.133646654907732e-15,-2.3788429056904514e-14,-7.312714290871301e-14,-2.4721512518476995e-13,-5.422346938045204e-13,-1.0046784016431446e-12,-1.445512697730983e-12,0.0,0.0,0.0,0.0,-0.15467734765499716,-0.17225141329122165,-0.141543218304103,-0.09763902838707032,-0.043023092351905205,0.0,0.0,-0.00024486391056318925,-0.00016946230497486345,-9.617625748585357e-05,-5.051065732790365e-05,-2.437563346930375e-05,0.0,-1.8072840964678303,-3.869430805438078,-6.125509800271967,-8.533735035139832,-11.055096802381579,-13.618533879168513,-16.09828982542263,-18.301423165527403,-19.96766453168667,-20.791330232239606,-20.478358507313956,-18.84652927325828,-15.960296147198823,-12.256379775412361,-8.55126335871879,-5.721284414802769,-3.830268653420757,-2.701804490312005,-2.159298217997432,-2.012767444517933,-2.0952903887689733,-2.0635759573048422,-1.5017590790105981,0.0,-1.5321379178160141e-09,-2.204229179025086e-09,-1.502888691081156e-09,0.0,0.0,0.0,0.0,-112.03032991264922,-161.45919945042291,-139.7118732603561,0.0,0.0,0.0,-0.0009656176838302422,-0.003603734256740108,-0.013449319343130194,-0.05019354311578072,-0.18732485311999275,-0.6991058693641906,-2.6090986243367715,-9.737288627982899,-36.340055887594836,-43.18699255200468,0.0,0.0,0.0,-150.83159552488812,-291.0843519985844,-549.0398422179833,-1121.426849445329,-2419.474704861927,-4344.767006992103,-6991.982983282359,-10582.53516506991,-15180.991100373329,-21369.300937708736,-30343.23717194944,-44420.825433296704,-67923.97950488188,-103478.90510511135,-158050.6721243127,-244985.68247511107,-382797.3374740675,-548033.6120126339,-500707.59634075314,-240649.227129161,-76465.78761602081,0.0,-0.3694407824853466,-0.733341407527178,-1.018927028823865,-1.2053785881648076,-1.2795450763626184,-1.2308755583639504,-1.0526647243525222,-0.7473264045670803
-2.9302737541907246e-14,-1.966730393718798e-14,-1.3548344102843065e-14,-9.413444184847225e-15,-6.5677061295195114e-15,-4.5957587134089415e-15,-3.223441987509065e-15,-2.2648845322390024e-15,-1.5929666980496678e-15,-1.1201933519260206e-15,-7.858441048485981e-16,-5.47207259359523e-16,-3.7349471878282625e-16,-2.419467533801601e-16,-1.3893224189412045e-16,-8.60587701291385e-17,-5.547194582703749e-17,-3.6516708785236944e-17,-2.4317922886098406e-17,-1.630058851211896e-17,-1.0965706368707323e-17,-7.386154560928952e-18,-4.9655992564944075e-18,-3.3065150342517027e-18,-2.1239160263199845e-18,-1.1591439745617847e-18,0.0,0.0,0.0,0.0,0.0,-597.0714894842366,-1180.3095145594737,-2013.6081250314567,-3387.1834503552263,-5831.3252763921355,-10522.721319931952,-20421.49369107776,-43900.995378790045,-107460.26067461733,-303890.89715062745,0.0,0.0,0.0,-1791.1087400983986,-3603.4298464081844,-5536.9033380922965,-7472.355505649446,-8096.898712825325,0.0,0.0,-9951.981053394265,0.0,-433.45318346993525,-621.6117620237656,-465.2921424256498,0.0,0.0,-4.088702790576339e-16,-1.3552776290214627e-15,-3.08646750472369e-15,-6.278260205907186e-15,-1.289292666399732e-14,-2.150501739317758e-14,0.0,0.0,0.0,0.0,-0.3100671342920497,-0.41778572756348614,-0.447248616971633,-0.4439641659422329,-0.44645797732876696,-0.3927850872057864,-0.29628243153812006,-0.17669936406651943,-0.05493061410460616,0.0,-1.774111043825993e-05,-6.56512552503623e-05,0.0,0.0,0.0,-1.2249891387435365e-05,0.0,-1.2350657515612478,-3.1329789097771603,-5.169486394487528,-7.244721664742125,-9.316547479394169,-11.323201311887761,-13.164318168631906,-14.697997665962461,-15.749188141595274,-16.133014548791397,-15.69680313513667,-14.379053551023159,-12.27500313970032,-9.685330603054172,-7.083869747244761,-4.926139865904893,-3.3249421296378014,-2.2270881045030446,-1.5656654358770863,-1.1558739714922757,-1.045063005574084,-0.9290876620350867,-0.6077116852614213,0.0,-3.924322492239048e-09,-5.000704431374068e-09,-3.1725181922338613e-09,0.0,-21.370155728422617,-28.67263781899965,0.0,0.0,-54.656562447334366,-57.16705033891456,-17.703104850563992,-4.425776212640998,0.0,-0.00025873647858086214,0.0,0.0,0.0,0.0,0.0,0.0,0.0,-79.59796713290342,-121.39606925806504,-141.61306176615568,-170.265232047154,-213.84868171630032,-312.24203010096824,-464.4659702514661,-783.6481674280199,-1517.1928507014059,-3002.6578586736878,-5550.896627339702,-8927.589022458415,-13113.700317954708,-18307.932682358096,-25333.558172025103,-35511.99171349794,-50756.46028958524,-73649.34445062939,-106746.13083476693,-153673.37377149993,-218433.06012966298,-300827.17396488896,-383297.826566748,-434940.1020361897,-201033.61883620187,0.0,-0.32994257117625536,-0.744421722414656,-1.1461596473597147,-1.475778140780336,-1.7003345586457308,-1.7970811982424044,-1.747821215133595,-1.538977553550997,-1.1652115526204063
