-6838.0472678574415,-5482.196853316621,-4392.324278772311,-3570.8691855467255,-2971.592019620316,-2538.838523582711,-2212.501208961867,-1951.3603772351557,-1731.4024534164491,-1538.804171270937,-1365.4552895873487,-1206.576150618304,-1059.404193890207,-922.4403122994044,-794.9900470719815,-676.855568402322,-568.1076202710415,-468.9086304143798,-379.3790007487762,-299.50967204039483,-229.13491852532664,-167.9833105914974,-115.80410320105551,-72.5926678178615,-38.77758067261146,-14.559355600347054,0.0,-2.524645683822958,-9.42210658920361,0.0,-25.71724460222604,-58.1393031018992,-97.42540332167815,-143.4608718974018,-195.35937470682273,-252.4264602009979,-314.006145854929,-379.2022101062985,-446.71846493234773,-514.7977065391993,-581.2068153501995,-643.2382887707639,-697.720580548884,-741.0410012425679,-769.1887894850183,-777.825936724498,-762.3893718015123,-718.2138309540617,-640.6427027641802,-525.2301079465531,-369.45284117440053,-182.41285811129774,0.0,-494.9183940252394,-1004.9004875006624,-1410.542820973984,-1665.1060986879395,-1732.7722049289262,-1558.262926967425,-1048.3797475340293,0.0,0.0,0.0,-36.516350155093576,-71.44803259954985,-104.8374728209048,-135.50713670402692,-161.64455224048135,-180.7095543303503,-189.14422380147548,-182.05710729823937,-153.0807842950426,-94.56196891220438,0.0,-0.8664653163426471,-3.2329045204115965,0.0,-183.38492173804303,-426.82716184223324,-730.7868274128576,-1072.0693256614509,-1430.722053839197,-1782.0730781170146,-2099.0786765750086,-2362.4338258057246,-2562.837720791015,-2697.646833957827,-2767.3463106962763,-2773.7546972549717,-2719.505495740023,-2607.9437574643835,-2442.9616897645965,-2228.6871514753957,-1969.1208084794732,-1667.820022510319,-1327.5371166800276,-948.9382588028125,-523.9519806493588,0.0,0.0,-3454.204551365746,-6581.728855834405,-8862.276880537556,-9839.427484180964,-9100.376543519713,-6167.944750137205,0.0,0.0,0.0,0.0,0.0,0.0,0.0,-34.3285135625821,0.0,-339.9531846855781,-547.9922253711411,-605.7944918652571,-547.4452925956845,-413.01288082181946,-225.58491474068333,0.0,0.0,0.0,-151.1346631394283,-278.67344693970847,-370.3331683495792,-432.9918830687338,-473.58747284312574,-497.14697604711915,-507.2967770799297,-506.8358624640519,-498.0962337467755,-483.1277861546472,-463.75685217647555,-441.5539996826716,-417.74217184654947,-393.07712292497655,-367.7337237640118,-341.23208228880145,-312.43501504676806,-279.638561913801,-240.74691129084076,-193.47103241444805,-135.63831350296707,-67.31946042596074,0.0,-24.29168925807012,-47.50082652493791,-63.704528374464786,-70.64332524206861,-67.27934180007242,-54.443781404467465,-45.24963402389504,-34.42627338196501,-20.547930230374593,0.0,-1.7554701564236979,-2.626552548459219,0.0,-1391.9348771439434,-4155.047010990698,-7134.995381154482,-9833.508110146211,-11788.5598196539
-7576.546089189749,-6236.054378480268,-5140.8352255947675,-4271.5256372061485,-3594.305158113736,-3068.6515171359315,-2653.433406763179,-2315.598868043695,-2031.795025684926,-1786.3538788427818,-1568.9844579959884,-1373.0482744382543,-1194.3867006331543,-1030.5296210176532,-880.1393649289676,-742.5930534096586,-617.6538829401128,-505.21891779929786,-405.1512367377803,-317.20237018332153,-241.00641863293797,-176.09518476906075,-121.9126341101708,-77.90452544867668,-43.79281710233083,-19.459855926720216,-4.864963981680054,0.0,-35.163782815071144,0.0,0.0,-33.59235459539781,-76.23022923975165,-128.34745958547103,-187.70543254060908,-253.69927393547223,-326.0572829026594,-404.13334166502307,-486.6911505459597,-571.8815864278156,-657.2614790372475,-739.8063548280853,-815.9172456776313,-881.4346312804084,-931.6713779116513,-961.4699601587748,-965.2776303478395,-937.2110573640116,-871.037389950351,-759.8915672717537,-595.0722887392257,-360.1988488371724,0.0,0.0,-443.16022113898305,-767.7403970552699,-929.18401337273,-899.3318238614506,-614.3986877072189,0.0,0.0,-22.356371630203864,-42.86389607097218,-74.61736802082739,-110.3974367013379,-147.67927169612554,-184.83822125881468,-220.13608103995813,-251.19494867479483,-274.42801580967256,-284.24553848157825,-271.99439424225585,-225.16709135377877,-130.6821941129473,0.0,-12.065152765304132,0.0,0.0,-268.38439099125014,-646.7104306181913,-1073.3228048168141,-1530.6796132450459,-1984.0635648866514,-2386.7091812973936,-2711.649406187575,-2952.3761465452194,-3111.52794825683,-3193.4381824753405,-3202.1498595277044,-3141.8744755634298,-3017.621126535911,-2835.2576074668355,-2601.1123394797864,-2321.4314531523682,-2001.9073377769082,-1647.3081443052872,-1261.072578937975,-845.08384077633,-404.5853109777061,0.0,0.0,-2859.9610013207466,-4858.115149448582,-5752.706914476136,-5341.336967884022,-3578.7007863424324,-894.6751965856081,0.0,-19.95805764080179,0.0,0.0,-25.52638907467386,0.0,-90.51009252614686,0.0,-586.568931605835,-883.9881029641264,-932.3143197259095,-822.5321040799752,-616.4206798041317,-339.8807665609503,0.0,-26.441034073968517,0.0,0.0,-150.8878730232378,-248.3974479917014,-317.3342219168588,-366.3201793608013,-399.7145501247669,-420.58239432571366,-431.47125432793325,-434.63266841067065,-432.09480104639914,-425.6690817303158,-416.90184219327716,-406.9767370753209,-396.583261807303,-385.7779865230664,-373.8725879894242,-359.3775476503008,-340.0034851378421,-312.67582214382827,-273.4306079712724,-216.8361126853916,-133.6395306231663,0.0,0.0,-20.563579591792454,-34.753491844712926,-39.265135502279286,-30.99262716171544,0.0,0.0,0.0,-5.899747239313767,0.0,-0.7644180306254792,-0.9458984115776514,0.0,-1412.6924984006628,-3203.0690211187884,-5088.242822343876,-6750.6479018380305,-7866.293067503935
-8049.607278900086,-6744.640843956685,-5663.438128091972,-4780.094518185979,-4065.453011103296,-3488.030538779069,-3016.983585695132,-2625.8081941289774,-2293.826395780685,-2005.8332977512855,-1751.0817533500453,-1522.2470642129467,-1314.5658874182448,-1125.1531691068883,-952.4456833835009,-795.7242219827614,-654.696644963281,-529.1625095670574,-418.80513679974257,-323.14253050416823,-241.59348703398703,-173.47858199361485,-117.84686180539312,-73.32006670802448,-39.02934856921779,-14.622301123984501,0.0,0.0,-131.2330325731778,-120.3091753221615,0.0,0.0,-45.55594783800685,-105.99370577317382,-173.4161808607343,-248.6086406647503,-332.39125491634394,-424.5837719803831,-524.0324182800922,-628.7773705162011,-736.152658746081,-842.8100243315835,-944.7091291978722,-1037.110677580235,-1114.5939357942145,-1171.1066863448364,-1200.041860596425,-1194.316991327732,-1146.4056713638272,-1048.227682002776,-890.7467809076088,-663.3106993998142,-356.2542093175553,0.0,0.0,-288.0745327353825,-384.55773388626005,-320.97238943692764,0.0,0.0,-21.743615747452633,-46.56159044984513,-74.48184463286043,-108.69178915591026,-147.84507448885464,-190.64395600345196,-236.0303955951567,-282.86660198575146,-329.5061435192091,-373.1273522808533,-408.50263657615693,-425.4841628386349,-403.42980814771647,-297.56168509801535,0.0,-45.02770654080636,-168.0456733979267,0.0,0.0,-514.3477586924246,-1043.831934942394,-1634.6101373289077,-2236.7925146376715,-2752.0452220858065,-3145.078629093123,-3423.489678802085,-3602.6508040336425,-3692.728787714202,-3699.5322575950463,-3628.2215899615067,-3485.408826301176,-3279.335422537797,-3019.0732790855227,-2713.5854424259196,-2371.069827058474,-1998.715618889918,-1602.960125629379,-1190.7255254634845,-773.2574180193493,-373.6203367088217,0.0,0.0,-1957.5158014598903,-2971.94805639098,-2933.5636271978065,-1910.8462307628965,0.0,0.0,-79.83223056320716,-101.85005936015538,-114.47720983574685,-102.10555629869545,0.0,-327.71185654200536,0.0,-1122.3344387736365,-1469.0769351536208,-1416.9425799942808,-1193.9481241941762,-890.2569677537828,-517.5174716989868,0.0,-105.76413629587424,-71.75532643399447,0.0,-76.4806016081774,-155.0345357713269,-221.62738689901303,-274.6444845964413,-314.808664945057,-343.8470118049963,-363.83410969254226,-376.8684033317844,-384.94968761157475,-389.9228518261258,-393.4075709011811,-396.67969306845004,-400.50122102186356,-404.9223922458444,-409.1027542878992,-411.19911995218484,-408.32202472438445,-396.52229799729,-370.7394759328143,-324.63600681423776,-250.40255347225735,-140.03506732901914,0.0,0.0,-15.48072391572011,-20.671097767677796,-17.426031349990712,-7.419073893095792,-4.228072597853543,-3.090854229296328,-3.0510587312353477,0.0,-0.35630355466418234,-0.39262306728860064,0.0,-1055.766096035603,-2156.2937538003257,-3264.2589866365647,-4214.547608935037,-4817.816397493217
-8269.727491738671,-7029.465301666013,-5988.183667446061,-5119.963060048727,-4399.3836024425855,-3801.0358101414367,-3300.6639519569158,-2876.8256378173364,-2511.8707194016665,-2192.072740998409,-1907.2636777701755,-1650.2937167282855,-1416.4778689536117,-1203.072607051374,-1008.7669642731408,-833.16235646194,-676.2466822348176,-537.9299285112858,-417.76474210581773,-314.96949263976245,-228.74668720615503,-158.3789838950646,-102.67628720670729,-58.49959989770792,-24.382237116731424,0.0,0.0,-256.1460922363218,-369.45920130632175,-350.0036897312626,-219.10323755872668,0.0,0.0,-76.65555812696202,-151.3574401854844,-234.9285263507278,-330.31618192761624,-437.779119589408,-556.0786153869028,-683.0442375873229,-815.7633529340013,-950.5737023604645,-1083.0004496991567,-1207.7069973076498,-1318.4890506128222,-1408.32306047988,-1469.4681779058121,-1493.6113341878042,-1472.0424311523295,-1395.8682976138969,-1256.377745253306,-1046.043870900781,-761.7066168432726,-411.73585492219013,0.0,0.0,0.0,0.0,0.0,-17.807729617288935,-40.4128725399672,-67.66452978886642,-99.81010285471838,-137.82286948110414,-181.64711609472556,-231.02108223367966,-285.7728031326192,-345.79378778869415,-410.83567113545075,-480.07261321838945,-551.1534927035775,-618.0098123884277,-665.5062933004525,-656.1347381314085,-498.99065226206284,0.0,-627.1549870509201,-2340.574274805827,0.0,-366.84871023947795,-953.0471036375934,-1727.1365735233715,-2576.4512415140503,-3239.600688098655,-3693.1303484706377,-3993.8532857078058,-4182.856958978214,-4275.294068183697,-4275.028954789486,-4186.070958626978,-4016.45731764659,-3777.6021188718555,-3482.260040777839,-3142.7673242470955,-2770.0710061454915,-2373.524457583373,-1961.326839839284,-1541.600760091386,-1124.0985252081396,-721.2239408193515,-342.65518406403737,0.0,0.0,-1244.005882430087,-1510.1232537533283,-1131.120509511347,-447.54894217071796,-235.03291848299426,-197.52080525187148,-213.09079704166749,-253.95322368413656,-268.4186262843611,0.0,-1220.3373336418747,0.0,-2433.6918883350904,-2453.0426188824404,-2072.4309409034186,-1646.0608449486676,-1233.1415953178375,-839.9321524812146,-484.92220411096116,-324.86018467553447,-181.2571694401039,0.0,0.0,-73.63271151090385,-139.49631283430605,-195.82171721464059,-241.02862558403132,-276.1628926152629,-303.149785405282,-324.0571651608853,-340.9127129502649,-355.665086650294,-370.12591672000514,-385.833263837409,-403.8195576339655,-424.3076276608517,-446.4169370244707,-467.9941724203056,-485.563213905692,-494.3518856468948,-488.3690052384111,-460.5658966744465,-403.29961718164583,-309.7377200452677,-176.8471683755332,0.0,-6.49830605598046,-10.512500312613415,-10.621326592092604,-8.022191644213635,-6.402362291118824,-5.0842856072078435,-3.2136334654761294,0.0,-0.26817312089485307,-0.26829030299830575,0.0,-654.0781325947355,-1102.0809121087525,-1597.9517622857907,-2025.4671506787888,-2289.369231795055
-8260.94290430005,-7115.31109686218,-6139.870113142773,-5312.19240910672,-4611.084492300117,-4016.0670996069525,-3507.8126948384424,-3068.9615538464254,-2684.7598971050847,-2343.3249684688312,-2035.6080856684544,-1755.1877115917807,-1497.9805775247703,-1261.893587817155,-1046.388217769029,-851.9124120262827,-679.1985066608008,-528.5463502242014,-399.3548549259541,-290.22434321538174,-200.04502097923978,-128.6145348117692,-75.9797953483156,-33.61984881150588,0.0,0.0,-416.58369806636506,-655.125226431581,-740.4540546910777,-691.1431990627341,-526.4092922675611,-272.5728248791417,0.0,-49.27133260131318,-120.42991277077661,-209.43244893550778,-316.1666366972669,-440.1389329110513,-579.4599288685474,-731.5590720788189,-893.2844839182301,-1060.7228495218314,-1229.0140119605755,-1392.2299997458053,-1543.3345073002122,-1674.2306911978974,-1775.8988338824472,-1838.6200670508251,-1852.2866375608937,-1806.8273591696543,-1692.8537904605357,-1502.7818333532816,-1232.7935270500077,-885.2373227674349,-467.6724168827957,0.0,0.0,-4.84773199223833,-13.547719725625534,-30.81804592919,-54.43561500626333,-83.87355331093866,-119.27116751604754,-161.1424698190689,-209.8994381752721,-266.0204537039321,-330.24594691295823,-403.7000749009693,-487.9701400155269,-585.1739367536952,-698.0289086313575,-829.8953007110696,-984.450814534284,-1162.4803218651302,-1339.8278709168649,-1331.8817438808098,0.0,-8735.142112172658,-4367.769915883636,0.0,-674.3712397464876,-1744.43787768352,-3102.275276603887,-3936.7760453752794,-4393.988911297426,-4675.93628893681,-4859.629819025577,-4950.561717541106,-4939.218682859725,-4824.576118681848,-4616.747508622945,-4332.3558286681355,-3989.5975647236583,-3605.1529189095945,-3192.922512692199,-2763.9844470322705,-2327.222081682836,-1890.2521997155363,-1460.312016874566,-1044.5217387549353,-649.3968051010467,-286.55301042164047,0.0,-493.95221957603985,-731.8029958740724,-655.9636113584455,-424.04234068853054,-295.06192650938766,-262.12727491961715,-299.03909987050645,-419.82626157477074,-717.6157251546124,-1563.8780141780624,-4553.637478025494,-14045.860481392629,-6159.390495684285,-3836.9707111376333,-2773.6777197882866,-2084.722719379241,-1556.316416087687,-1124.1473387970748,-774.896479287097,-527.4972288551998,-328.4131666508873,-149.040954589456,0.0,0.0,-66.90344095423174,-128.11745376968415,-177.32123791930314,-216.62616018315762,-248.5449885550866,-275.2977749772288,-298.9789297592806,-321.6988836042153,-345.59776488979816,-372.707908026992,-404.6361386286573,-442.0716446658037,-484.26321473057055,-528.797439572699,-571.5847929923399,-606.9530445192728,-627.8187801189849,-625.9589725887965,-592.4923106963281,-518.7690358972402,-397.65095797315837,-224.11284787611146,0.0,-4.259270846657515,-6.524583084263466,-7.646003835197702,-8.274899356566028,-7.6302924792540745,-4.719189540638076,0.0,-0.44809862620977214,-0.4123650239973444,0.0,-458.4655232046865,0.0,0.0,0.0,0.0
-8056.430460171965,-7030.968113145049,-6143.795371662578,-5377.85409077128,-4716.69698367078,-4144.337509787843,-3645.5602417612145,-3206.449988209465,-2814.8842598209867,-2460.860950644933,-2136.6576518937186,-1836.8699824021235,-1558.3644933895418,-1300.1341283889135,-1062.9809122890945,-848.9014024639134,-660.0892567187051,-497.7026379554665,-360.8843792566903,-246.52828341784735,-152.5946993655218,-80.05444194262101,-39.00855932273416,0.0,0.0,-625.5509695489867,-1011.209655418378,-1207.3171697707028,-1246.0887039238958,-1147.7058586600845,-922.8179795231329,-563.8820415423695,0.0,0.0,-71.65874245660835,-166.2052326577391,-284.7797186383512,-427.1510228750143,-590.0643224855883,-770.4491194891314,-965.0943931899036,-1170.021171683781,-1380.104942215498,-1588.866870856978,-1788.3908361461686,-1969.369027615478,-2121.279126545586,-2232.6861899823016,-2291.6593494017425,-2286.30321796636,-2205.4304971178076,-2039.4380981282143,-1781.4498862536343,-1428.7485676897288,-985.4528898268146,-475.7492450624112,0.0,-5.843208243328193,-18.525100981074825,-37.48111936758408,-62.63798824496041,-94.12290093258162,-132.25854407946986,-177.57640410385926,-230.78771308337107,-292.91534749382953,-365.4904559143257,-450.7904248867136,-552.170877272011,-674.6240851495292,-825.8929043571134,-1019.0916672902405,-1279.9213422605221,-1669.5078638780114,-2365.958765659518,-3987.6991046064427,-8995.32550856005,-28232.224258002167,-8735.937551363546,0.0,0.0,-1473.9684657302435,-4151.4360085062135,-5011.239391184781,-5270.113064110752,-5456.2732543702305,-5629.164435095299,-5728.104431123229,-5706.708074810809,-5556.267459202263,-5293.600901265507,-4945.4762486152085,-4538.621588592119,-4095.3243817910625,-3632.4817745668115,-3162.268818925286,-2693.324909098965,-2231.873995242487,-1782.3756453029653,-1347.1542209280963,-923.857304144531,-496.8152433614866,0.0,0.0,-267.17289880847613,-336.88859935983214,-297.594882715571,-259.0451719464089,-256.88726804670296,-301.1120659459705,-408.69699758982773,-618.3399985812558,-984.2588535321432,-1384.4740828894091,0.0,-4321.03890187179,-3961.7720101955233,-3100.5865077328563,-2362.8358966923256,-1783.2540108565963,-1325.444307332303,-963.0191453851548,-681.8190848072819,-455.8573137187906,-267.7506517069372,-115.16014767942077,0.0,0.0,-72.42342480541086,-123.5127204701971,-164.4755321922694,-199.1062461721502,-229.61003067836043,-258.0063632491164,-286.55377015742937,-317.8583693786964,-354.76448392860624,-399.94546427314,-455.07961853574767,-519.7668592066047,-591.3476001077887,-665.0254959907614,-734.0567409211831,-789.9941187220454,-822.9589217572257,-821.9416335574158,-775.1951681057907,-670.8747890498455,-498.80043831987564,-259.04214011996345,0.0,-3.5717310916550864,-7.7623413089945945,-11.420938891283294,-12.44279547879303,-8.032832249675037,0.0,-1.1118563606735115,-0.9330711672311226,0.0,-1179.7839628548197,-2018.7202523064038,-2756.462049901747,-3340.268503952473,-3769.039958132723
-7695.276642575277,-6808.33769007557,-6026.491391391039,-5338.733852010121,-4733.5141012926215,-4199.027952979684,-3723.6429648768476,-3296.3960119559915,-2907.4682142926968,-2548.578803771895,-2213.2933172103194,-1897.2716284675673,-1598.474653927206,-1317.2986936882708,-1056.5008785085342,-820.6238182672503,-614.5550947156278,-441.2910245913089,-299.95206342618076,-182.4099155270096,-83.75115372313284,0.0,0.0,0.0,-940.3444233741923,-1490.9943442204753,-1795.3869399049013,-1916.8452660479709,-1888.8779053340288,-1730.7737078296727,-1453.2748466040077,-1060.1374262910876,-554.2448428216247,0.0,0.0,-98.95040645481579,-229.59661149452754,-393.6220171681744,-583.1984038030762,-795.0801678575765,-1026.6245684072449,-1274.1645590612752,-1532.5200436866735,-1794.7442835641475,-2051.9957333183993,-2293.5784245476225,-2507.1655428135196,-2679.189361227606,-2795.3644783459863,-2841.2986907362806,-2803.129713321412,-2668.0927171919066,-2424.821504601016,-2062.855838507778,-1569.642424900838,-917.5445715146807,0.0,0.0,-17.228356587762608,-37.943342315113135,-64.51231767341577,-97.72151809496204,-138.06370376539704,-186.1168894335348,-242.75966256053303,-309.3627672737011,-388.0101043638158,-481.80029145956536,-595.2988590362943,-735.2586222153211,-911.8269563573552,-1140.6571218322922,-1446.6350233395992,-1869.6710257269394,-2466.8002232368563,-3257.6304003256027,-3761.378671632166,0.0,-2343.756031573965,-639.0865749528396,0.0,0.0,-7018.260948106552,-6686.632513917784,-6218.95078323399,-6249.879326625199,-6472.650343899198,-6625.983612852548,-6603.241846628494,-6400.184864427182,-6055.912509968102,-5617.326793609437,-5124.088270859562,-4605.041348605851,-4079.411478578271,-3559.2842276714564,-3051.934811342344,-2561.543285390755,-2090.162394435721,-1637.8622297443046,-1202.0629695935995,-776.8506688744066,-358.3726342728712,0.0,0.0,-126.82300455683612,-170.40341886751233,-186.63661051397412,-205.26455937481535,-239.82489827684498,-295.509664257314,-362.78841804844,-370.3433184798452,0.0,-14711.630812773708,-7162.9931016073515,-4588.491920039816,-3304.0604042552936,-2482.7803488006134,-1888.4194233140727,-1431.3567342903889,-1069.91671011394,-780.9026512699846,-545.4463517100577,-350.94419084008274,-192.88993901074642,-72.99508344764543,0.0,-38.06352900251271,-79.83069329236525,-118.65701044132284,-153.79444373976898,-186.02975056103492,-216.88273621204843,-248.65147960201824,-284.5174750255285,-328.54621176689193,-385.30163500281765,-458.5345263176277,-548.3770250650298,-651.800628417374,-763.1128735406061,-874.2543284319798,-975.1420558331208,-1053.940984912165,-1097.120154570354,-1089.1952320349194,-1011.8526061655244,-841.1719859183747,-537.3681265421044,0.0,0.0,-8.410691494543729,-17.203719539207153,-22.687118418325856,-14.969344039471284,0.0,-3.0662556511697012,-2.2080632853084063,0.0,-2241.9500855238225,-4138.635012038805,-5666.859463641368,-6835.572031513031,-7677.254042171251
-7218.808020250127,-6480.61687127165,-5815.100973800609,-5217.078183285966,-4679.5999830134715,-4194.619579958349,-3753.5899430598633,-3348.0250854142323,-2970.015870314322,-2612.6946759136104,-2270.6669552944827,-1940.4501360585984,-1620.9651643985933,-1314.086257667925,-1025.10101338349,-762.5386115823034,-536.2168045655852,-352.95466540625887,-215.22316235341398,-99.40826947010589,0.0,0.0,-1208.8350923271869,-1754.868864086158,-2270.383505256485,-2602.6952469054118,-2762.4987282409656,-2775.7992981692214,-2661.8041898384904,-2433.236446929975,-2099.370461787247,-1669.1481098482436,-1156.8420165364976,-593.1837968708355,0.0,0.0,-141.03478688610357,-334.5428210766175,-554.0282203149761,-800.0500244537853,-1072.1609355189753,-1367.4945702618413,-1681.0688340323509,-2005.5972381961546,-2331.272419504942,-2645.7866633387935,-2934.6187139747344,-3181.544810382813,-3369.314133389015,-3480.4009308771206,-3497.700382595624,-3404.9847347518375,-3186.8903881734336,-2828.2131703528753,-2312.7180691864673,-1624.7874380826333,-776.5588997930901,0.0,-12.444983054863494,-32.55157563169202,-59.74642203863052,-94.18715000845825,-136.1578634536275,-186.06778730435764,-244.77128045153492,-313.765954676638,-395.3869028076854,-493.1017775514552,-611.9656451983,-759.2845883181295,-945.4991770247237,-1185.0748403420098,-1496.290603538688,-1895.7409924533504,-2373.940701235442,-2814.6436018270406,-2792.5587776430425,-1409.5622787130521,0.0,-212.59026831325357,-211.27449858070239,0.0,-17234.975302041046,-8498.078983202573,-6669.178294613882,-6851.643005414794,-7385.574092985227,-7699.9379305338725,-7680.090941219484,-7385.317751965461,-6912.537591224926,-6343.830253753239,-5735.363457221993,-5121.341361625506,-4520.838654069774,-3943.521883295629,-3393.586894573266,-2872.202001230854,-2378.8684670488274,-1912.069372794084,-1469.6817035387744,-1050.1518456191025,-656.6398761977567,-305.5040229766852,0.0,0.0,-70.55917768366804,-111.83329186715987,-137.7094606617394,-157.41330352927997,-170.72834311414326,-166.96069087534522,-134.3260023387976,0.0,-5686.338800385104,-5030.81077174409,-3925.1421641011025,-3044.38284044789,-2375.805670940766,-1856.2865993086966,-1441.6464964012434,-1104.388309510236,-826.4284584486614,-594.0812510113755,-397.68982093259115,-232.46033407583764,-99.0903947798356,0.0,0.0,-39.08951751749677,-76.5273789071666,-111.38477610002342,-143.83180168054128,-174.8433630498067,-206.65195001328524,-243.01385367063256,-289.6012687998708,-354.1803549103088,-445.37984576499,-563.4061074167944,-704.3650380312066,-861.3710661471264,-1024.7056695708472,-1182.3788180798606,-1320.542834159676,-1423.4027933338434,-1472.6130226307125,-1446.1684375130385,-1316.6667875240885,-1049.2583878433702,-605.2953160351469,0.0,-8.676705234683169,-26.296129550286295,-46.132614859328164,-29.1574256053688,0.0,-8.945102963935845,-4.832926325096918,0.0,-3649.3813842787654,-6627.01027363573,-8936.768795674636,-10657.906156286454,-11869.925515865452
-6667.119794698981,-6080.22312220273,-5536.219843379504,-5034.880361437801,-4573.190515661767,-4146.262866326549,-3748.0745101861935,-3372.1007919731182,-3011.8776539263276,-2661.5190618199485,-2316.2314880857325,-1972.8983742228536,-1630.8509498579178,-1292.98124929747,-967.2791461713215,-668.2134154633646,-414.81924655554974,-219.087905019711,-108.57776684328125,0.0,0.0,-2048.719354376929,-3080.4716373309293,-3540.2570522654096,-3783.6257360853588,-3886.9047038793565,-3876.1137515844002,-3762.04934486254,-3549.3034401688865,-3240.997736721706,-2841.8227126259694,-2360.242749225781,-1810.7914655150591,-1215.893247008549,-600.9864207596495,0.0,0.0,-249.48691109441194,-498.3226402428332,-778.9321527712556,-1094.4763394147624,-1442.5860997104476,-1818.6660150053283,-2215.3063178057696,-2621.7132926097806,-3023.6806557962414,-3403.9816610132966,-3743.061051745593,-4019.950451479152,-4213.294680335061,-4302.29023439793,-4267.259333297808,-4089.545690785997,-3750.3914506164724,-3228.2316622160724,-2492.329816406895,-1481.448876634136,0.0,0.0,-20.071555118162475,-47.734644840958794,-83.12279644661697,-126.31281273630279,-177.22511587874078,-236.49171726462058,-305.54286817364203,-386.66977463884615,-483.25427074028653,-600.1773558873404,-744.4149088341969,-925.8103230814269,-1157.8524589723681,-1457.7115580198324,-1843.0616393123778,-2318.5779874245745,-2834.444528104125,-3184.65055839994,-2845.6903372091747,-1135.7068662850254,0.0,-632.5077270469666,-843.1943302529933,0.0,-3401.5298556548646,-5108.0404561598525,-7101.940371538211,-8518.065168454696,-9108.103161155614,-9031.866328943557,-8548.457708728738,-7865.089949010617,-7110.093272464869,-6352.194039707298,-5624.122079284106,-4939.0799794269515,-4300.377836128958,-3706.6889532588643,-3154.809419588591,-2641.040151813257,-2161.8651331339415,-1714.4426586876593,-1297.4351569603687,-912.5310163102697,-565.376222362151,-259.63688996467073,0.0,0.0,-52.427918609257944,-76.32668787570242,-81.39051206439235,-63.029713794633906,0.0,0.0,-1020.5919938101308,-3002.9136170226243,-3348.769020882804,-3036.8831241726184,-2572.523122494402,-2119.7728952058683,-1719.274806578709,-1374.5543424956568,-1079.561573077104,-826.341622003053,-606.7603729541944,-413.2735078030707,-240.17118158017846,-90.9061615958596,-24.3630700234244,0.0,0.0,-36.97821575859069,-71.38548616398793,-103.06932478831845,-132.00697350995148,-160.09911419297927,-191.2847324843752,-232.66466780713375,-296.4386847511396,-405.3984114982549,-555.502540696998,-740.8823729680643,-953.3007090657708,-1180.8184936372231,-1409.124742508874,-1622.4487709312425,-1803.3351923912599,-1931.685656620096,-1983.54135987915,-1930.068360583355,-1737.703336981396,-1371.9228847225068,-806.8567083351801,0.0,-33.171478882275636,-106.38978638996679,-55.527743737475355,0.0,-27.88122989449194,-8.178539054897215,0.0,-5728.565203800687,-9783.25594189519,-12795.299338622437,-14989.358338726302,-16496.51764618393
-6076.320303521104,-5636.938336130442,-5214.677355542589,-4813.035393508596,-4432.021357933229,-4069.169344900259,-3720.346866036422,-3380.428247417646,-3043.8770842471795,-2705.274447813775,-2359.8433696901925,-2004.0624899387676,-1636.5603109120264,-1259.7096582526835,-882.8216335953542,-528.2171143932576,-235.75909023720183,0.0,0.0,0.0,-3719.2312610389145,-5114.405934806572,-5524.075274935738,-5542.062261569118,-5436.958030268384,-5285.184473252584,-5093.002650991102,-4846.981322709698,-4532.36291526097,-4139.628747469364,-3666.6802601317363,-3119.2090084589872,-2510.1880795839106,-1858.6114585741418,-1188.0525106714726,-535.2548877143578,0.0,-165.08269033686767,-410.8441477332319,-722.8808812505557,-1084.2278696378307,-1489.7096128367139,-1935.705390761351,-2415.251746514082,-2916.5972205285148,-3423.2448409544004,-3914.570402981725,-4366.771748254037,-4754.136609614655,-5050.541883317618,-5230.9113175264365,-5272.221318053789,-5153.645958482384,-4855.579204098698,-4357.490606237364,-3634.85372328934,-2656.9080371309074,-1400.4484270932428,0.0,0.0,-27.99780576042731,-64.25657820075162,-108.74547516623102,-160.02814620968894,-218.42760455457324,-285.2440261144742,-362.4950568337837,-453.0681748835198,-561.0745987765958,-692.387368049912,-855.4747474944437,-1062.8131144462309,-1333.6415302559271,-1700.2160193517886,-2222.865081046389,-3019.905964764977,-4265.908590643438,-5652.84164543869,-1697.137127930929,0.0,-1475.562083190593,-2740.269598467463,0.0,0.0,-3259.5133359652896,-7930.012904612296,-10476.643109564968,-11182.543288566176,-10790.813584566997,-9911.556890537651,-8889.271312508241,-7879.258937417736,-6939.197438985628,-6083.873022746401,-5310.981430208457,-4612.220604756606,-3977.981732099048,-3399.3066337023697,-2868.6176408558,-2379.908394012526,-1928.7886772012148,-1512.6151347867735,-1130.6728292064438,-783.8329722658474,-473.1713429875688,-203.24471780611395,0.0,-21.551694694169488,-33.77886016742,-28.792343057953087,0.0,0.0,-395.70066857108185,-1079.4543582179008,-1955.954653012462,-2324.4685705918873,-2301.0981892121695,-2089.053630151235,-1811.4879808096014,-1526.4853893046204,-1257.7344939255763,-1012.9620182994742,-792.6160835322561,-593.3451109992816,-408.4726557453211,-224.04472284594704,0.0,-6.546118497838029,-1.8214039679277254,0.0,0.0,-34.10963190443166,-65.05304329354537,-90.01609874192226,-110.45280844025564,-129.36130274291838,-153.33399460999513,-193.51131573899488,-324.27258887911125,-512.3232887829087,-750.3612259935826,-1030.1309294224102,-1336.1428829459621,-1650.8529198909832,-1956.7923492015366,-2235.8035841043848,-2467.2530865655976,-2626.2430178672153,-2682.361987495441,-2599.563739157583,-2337.8361952305445,-1855.5039581734056,-1102.502475348859,0.0,-290.72730938885985,-86.56376328158379,0.0,-94.40127760517346,0.0,-4231.168217120648,-9481.623526857356,-13982.149004869807,-17471.814343532496,-20007.710287601418,-21704.269983384027
-5476.727393080033,-5176.534928818455,-4872.518308571897,-4570.565018357946,-4272.6927198007415,-3978.048815024859,-3683.717829777682,-3385.390615600765,-3077.930213238855,-2755.8603156643894,-2413.806866716077,-2046.9494537505711,-1651.6193951219545,-1226.4763624958048,-776.0811996692388,-326.0745785156241,0.0,0.0,-6015.007950579572,-9162.936942943243,-9762.519267110818,-9165.59808643829,-8359.361581098246,-7666.959075528435,-7136.96009868175,-6723.873004291102,-6363.731583536832,-6000.510918119242,-5593.53867999247,-5118.474577943698,-4566.061024625707,-3939.7253343112675,-3252.140699801475,-2520.3122275013357,-1757.3574189799247,-952.9670998248804,0.0,0.0,-257.0910557692826,-617.5204775006383,-1029.8462386711362,-1496.3211753397495,-2019.1967777343662,-2593.401156320296,-3206.182604318674,-3838.135166933242,-4464.287884303026,-5055.323833136837,-5579.287564431955,-6003.830342897981,-6298.597343977915,-6437.074130615926,-6397.242893103725,-6160.793703699385,-5711.302172498586,-5032.689985197194,-4110.883652166309,-2944.8870146721483,-1571.8803636234643,0.0,0.0,-37.16023542973378,-84.38436351818497,-135.71438923921673,-191.94652862951716,-254.51057489590735,-324.9982516983062,-405.4487731834268,-498.665496285627,-608.5852170944293,-740.8881844002246,-904.2837210622075,-1113.8254292058798,-1401.2958267924857,-1852.7603526442404,-2756.405659265973,-5206.236193970159,-13802.630525971224,0.0,0.0,-2529.471015904215,-8642.3219944799,-8399.067111155964,0.0,0.0,-10881.954835457585,-14275.951124080091,-14354.613357318054,-13037.28789724821,-11417.685029922015,-9901.179551087407,-8578.473806141861,-7441.463836983519,-6461.191222126469,-5608.752190638503,-4859.541493061022,-4193.710803735959,-3595.8178029972996,-3054.2154376233843,-2560.362171138487,-2108.188559926251,-1693.5639067135874,-1313.71221692729,-966.1115108701752,-645.9708016824028,-339.80753217612437,0.0,0.0,-8.444715041855,0.0,0.0,-186.72623088067382,-503.348316066428,-945.5701174779309,-1416.9820662174386,-1692.0524192601176,-1753.9874319329424,-1671.1052280887732,-1510.6400085766875,-1317.4442759046012,-1116.936225602559,-921.9359226629651,-737.8155828272205,-565.5313317653582,-403.22728133298756,-247.53505405828975,-99.23364831130509,0.0,-0.7394973738728756,-1.1365855275637864,0.0,0.0,-33.017121147947606,-52.55157407332999,-62.33472289764556,-62.37368037218739,-57.79869717223564,0.0,-185.85734951586656,-419.1568145500348,-718.1083330720103,-1080.7189253247227,-1482.7692195101863,-1901.3517399172133,-2318.064160232145,-2715.8337487422014,-3075.280128888871,-3371.815677932958,-3573.5728702952506,-3640.353470629133,-3524.3542266434347,-3174.820473965445,-2554.505954232256,-1702.7100721141344,-969.9556917797639,0.0,-230.61488477641672,-349.72388067998094,0.0,-7443.049371798247,-13984.61173274261,-19191.90227580057,-23102.098825121968,-25865.398576235417,-27632.550340039164
-4891.989830418358,-4719.95802678155,-4528.298387101869,-4324.016177875105,-4110.13824624787,-3886.6179144279913,-3651.0875178161873,-3399.488568311946,-3126.595088112619,-2826.431792813069,-2492.576146055704,-2118.3105957486177,-1696.4926551702597,-1218.4960252682786,-668.9526420144539,0.0,0.0,-6873.81734782329,-14897.09493784604,-20874.22069958993,-17002.31100596678,-13426.105878748438,-11080.814290377923,-9629.452844043084,-8720.050836956008,-8109.616467253025,-7637.5404001162315,-7197.792737538453,-6722.806948999703,-6174.6704667749,-5539.364479647052,-4821.491087262033,-4038.3375569315617,-3213.139638664184,-2368.0980436968257,-1519.256186809718,-685.8988060913,0.0,0.0,-460.26465813696944,-921.3168689958407,-1446.5340470744536,-2051.361929430484,-2732.9766227154505,-3476.600589323351,-4258.829631073246,-5049.126972032053,-5810.953465573034,-6503.865220001017,-7086.9006499237175,-7522.579860184921,-7780.241310543927,-7837.464033327248,-7679.0565317708015,-7294.239916737556,-6673.725233821361,-5809.053506582113,-4696.338434497763,-3342.635941478468,-1760.7170552707341,0.0,0.0,-55.91735423756157,-106.4985185994808,-159.1335458283779,-215.85349314134015,-277.5386018801167,-345.0631698662656,-419.5533960880693,-502.3998196419682,-595.209051949834,-699.6081561965115,-816.0806387129157,-938.3815059680495,-1030.4748434721278,-946.7201256845252,0.0,0.0,-3759.2025651973377,-4858.8561135657,0.0,-20900.48029954831,-24953.946486899375,-20069.887632459595,0.0,-21321.855335699503,-21390.593228762245,-18922.671164947296,-15586.0396718454,-12820.715842737362,-10719.28812308053,-9091.992969893234,-7786.992953205064,-6710.6759106833415,-5803.29468818208,-5023.4824412468815,-4341.50225085616,-3736.0383959648557,-3192.0641887488364,-2699.136339898211,-2250.039524869236,-1839.739748582621,-1464.5006474386485,-1120.9300723723102,-804.7928337570477,-510.0146151273723,-231.58729886084043,0.0,0.0,0.0,-79.77064883959027,-243.55660745626835,-485.3962473360274,-782.4957294099587,-1074.3510751192482,-1272.7716082982072,-1351.693891170715,-1330.7398416942335,-1242.5225495037798,-1115.7154801345437,-970.6302099170994,-820.0298639226128,-671.1789933483076,-527.7373519019475,-391.3700837629842,-263.6345637429212,-149.39953918693155,-61.63004973470089,0.0,-3.806844736382302,-1.8956136919015916,0.0,-14.463869073792956,-24.838355830699403,-23.960830885460318,0.0,-15.487114061989821,0.0,0.0,-260.33829808341886,-622.1963842287391,-1091.867244061347,-1612.863361247201,-2153.7206972638705,-2698.2788450546745,-3234.1871672138113,-3746.218049825745,-4212.166742636586,-4599.760391791453,-4863.923089959041,-4944.406805267815,-4764.917788494406,-4237.990818957365,-3286.3786579291486,-1886.3853920005818,0.0,-572.7356588303832,-1073.8793608004303,0.0,-11556.417578437075,-19821.87182204704,-25698.749625518994,-29879.280204599963,-32719.234961791502,-34419.261375837
-4338.962519293366,-4283.011270112083,-4196.703464592419,-4087.065572917007,-3957.228729612726,-3807.1996355664737,-3634.528269774613,-3434.883468499198,-3202.5320506432654,-2930.697698602216,-2611.7571587189805,-2237.2256573338204,-1797.5457782069109,-1282.0631979504544,-681.233599475299,0.0,-4255.390300733262,-12598.174510863662,-25825.33386483749,-42434.5401011381,-23946.398464441943,-16455.700519369646,-12908.337344399908,-11049.987752349585,-10004.174596193683,-9357.002347199628,-8879.021570517574,-8430.313454856774,-7925.226670776906,-7318.036581137535,-6595.2359991658695,-5768.53755722037,-4866.579287081363,-3925.811108919918,-2982.6392059131013,-2070.060966858246,-1224.3391126782549,-508.47644611948283,0.0,-302.2220008412338,-748.6237587225008,-1317.1380144520895,-2006.742695171607,-2810.5459040752107,-3708.417270717449,-4671.460250281837,-5662.442021877309,-6635.503566733256,-7538.325475007817,-8317.333903230883,-8924.587197963749,-9323.85447669988,-9493.322695358705,-9423.735631784555,-9112.882550492293,-8558.923793801041,-7755.2721834408985,-6688.781718673918,-5341.611073184079,-3700.2339296029263,-1808.713107378923,0.0,-32.786534832582795,-75.22878509277082,-122.2356429431787,-172.2312499609653,-224.23949281456302,-277.71190831345893,-332.0850985584267,-386.2516134355514,-437.94004756064356,-482.85921306110043,-512.5074634812335,-505.6747148946779,-384.0373895917014,0.0,0.0,-5195.996468987813,-10177.954258849511,-15676.221980891547,-24738.37090872933,-50005.652839220114,-50446.35100345495,-55325.60409725207,-25196.154854308457,0.0,-31041.895312996272,-24359.438435234155,-17563.483825228996,-13559.850596744962,-11063.264185424781,-9283.217058431368,-7903.839159335423,-6791.224844486299,-5870.26827513163,-5089.5913962210025,-4412.777422988406,-3814.7693979425862,-3278.866633548288,-2794.079521595299,-2353.0934920949853,-1950.8549503153604,-1583.6205807210474,-1248.3153200845218,-942.2558623527294,-663.8708061637594,-416.3345852993361,-217.38485904014308,-100.42656418390621,0.0,-75.52598790209326,-222.33330276878323,-412.1843364114568,-624.6654777066311,-825.1548965513914,-972.989047642753,-1049.2766827574824,-1057.6376980136713,-1012.9948676096609,-932.2648852127007,-829.8392700086882,-716.374329762085,-599.1331747414544,-482.8689987311444,-370.88113807408433,-266.23357796348193,-173.09989495880066,-97.12065975187274,-41.19826413664941,-12.195179726063943,-3.775610031224096,0.0,0.0,-8.377150161048926,-8.670245047173148,0.0,-4.149759171028323,-1.1119226476927384,0.0,0.0,-418.4716759835595,-1051.6903287456953,-1723.0963158929706,-2402.388881986584,-3087.1434008688702,-3776.4180754783406,-4463.238214241996,-5130.872906506372,-5749.378919850869,-6271.171745846491,-6624.432165676263,-6702.453099217398,-6346.160909971502,-5318.428372447141,-3289.2072281791893,0.0,-986.4483906304351,-3373.057905110956,0.0,-18960.749174223434,-28047.708433522144,-33901.944302574084,-37997.03752407578,-40712.99981856472,-42197.59485573364
-3828.1030795280712,-3876.4233169585555,-3888.4410108981965,-3870.3164009414654,-3824.514002825865,-3750.426180672325,-3644.9449747373096,-3502.987417633102,-3317.9542419990466,-3082.0718948738086,-2786.530987737298,-2421.2906462179985,-1974.402786691609,-1430.978144929565,-773.9188236987454,0.0,-4423.386718682319,-13438.156590857607,-33371.52602656946,-26805.04935873545,-19893.04256303402,-15541.9608396614,-13046.84738125065,-11657.986898239373,-10889.658214828964,-10435.197593643543,-10091.230964823884,-9719.213741812022,-9229.750584336025,-8577.014028884223,-7755.0061479752685,-6790.844531969461,-5733.631494826415,-4640.886759102243,-3566.587043656744,-2554.009590806257,-1632.920361515086,-809.5667207794469,0.0,0.0,-453.8190816178324,-1066.6530952127105,-1847.9271569571401,-2794.0499993110566,-3875.0660951085315,-5056.156630931094,-6293.682638835413,-7530.29939539404,-8696.605987939123,-9719.529664150134,-10534.58840637325,-11097.27490055639,-11388.245023776293,-11409.689145684903,-11174.639073420223,-10693.823020419515,-9964.336879453356,-8961.911419197242,-7634.797693311693,-5889.897892538085,-3534.620068973368,0.0,0.0,-39.39444399584355,-82.34899089060464,-126.59637094478447,-169.47621110371728,-209.45987201458766,-244.82347639663521,-272.58148798117514,-287.4403117960962,-281.3811850060205,-245.41528725624588,-187.77250053773093,0.0,0.0,-5418.852166882202,-10606.031817959505,-16080.396265197385,-22929.706895939056,-33271.60906561725,-50344.22465771917,-71500.20077105642,-74304.40161294564,-45459.01538018976,-18539.98914992501,0.0,-29909.70345939907,-16748.60662848911,-12791.938573401727,-10690.701010109178,-9073.771971017217,-7753.9218368902475,-6680.116090689219,-5796.962230332676,-5051.83750370272,-4405.246703433314,-3831.3951930572084,-3314.553476120252,-2845.221666780369,-2417.400012731982,-2026.9660158059628,-1670.811435562945,-1346.4547898749217,-1052.0445088719687,-786.8781760180299,-552.4953864954437,-352.7782923630796,-184.3214000664857,0.0,0.0,-158.06627930531576,-316.3423178343874,-478.8269484537207,-628.6139857369369,-744.753002963936,-814.7860942027951,-837.5393999933146,-819.554337708498,-770.5099230979166,-700.0876551428738,-616.495010375591,-526.1103771242861,-433.72433020709644,-343.05189183873057,-257.3187150781247,-179.64580293291857,-112.5544301773412,-55.47721706866156,0.0,-1.0116467069308577,-0.2709767964993367,0.0,0.0,-2.3429992050320627,-0.7017517903886377,0.0,-0.2979314266024359,-0.07980306055675598,0.0,0.0,-973.3261005565681,-1825.442723503154,-2645.5951547351237,-3471.4878493430374,-4321.10357422836,-5199.44388465536,-6098.707812120078,-6995.710699683838,-7846.95287194967,-8579.697073755353,-9074.301588727769,-9125.771396559845,-8351.96672800161,-5952.01516374694,0.0,0.0,-11431.903873725621,-42354.5576069317,-36238.870759515354,-39506.26853710001,-43864.28174968639,-47493.92590779788,-49938.13207924496,-51091.16955315276
-3364.1019673649785,-3506.1400716228754,-3610.3231778931645,-3681.2474497162266,-3720.0872072365282,-3725.0486459656463,-3691.8405476397165,-3614.1694305554693,-3484.227924279271,-3293.1067884869703,-3031.006148381618,-2687.004750408317,-2247.797812164675,-1693.5285765579433,-983.4638538209136,0.0,0.0,-3359.5391477144017,0.0,-11521.088971210605,-13278.761953897136,-12772.253397986786,-12079.105081615484,-11645.45501069272,-11461.274648492408,-11402.899812157204,-11331.491974086952,-11125.56100443297,-10697.548919498937,-10005.263771566006,-9056.930915603503,-7906.203701949498,-6636.216050887694,-5337.517908712427,-4088.8130106609756,-2946.470263416612,-1943.7661861269094,-1096.8701408339437,-416.83939199607283,0.0,0.0,-647.7292964238851,-1524.2647572706176,-2642.663602119963,-3941.6441347808127,-5384.4221161973755,-6925.838008374574,-8495.411788969031,-9998.276661367448,-11329.598358432444,-12396.970501564288,-13142.420836236917,-13552.702843713749,-13652.146527081848,-13482.171250116156,-13077.401797641283,-12446.34989603275,-11559.737615365628,-10345.777453176219,-8689.945248990378,-6439.872117823542,-3453.156445440343,0.0,0.0,-41.16950567861442,-82.32903182385427,-117.60910864093862,-145.82789224454436,-165.1674470323567,-171.81055029642323,-157.8585266365503,-109.80992791064268,0.0,0.0,0.0,-5793.215152936888,-11069.37711535674,-15728.882727752083,-20607.892495906413,-26690.600692880485,-35074.13420376605,-46599.43631117819,-60363.53848162029,-75545.04474888249,-63795.51602079564,-28700.941264469773,-9354.325894374206,0.0,-6729.300676515411,-10168.596087830603,-9833.829347541441,-8567.248021529233,-7357.960173936024,-6378.355501586779,-5585.627104114432,-4915.549737629691,-4324.976746130177,-3791.0112451870837,-3302.730458968571,-2854.8537012222514,-2444.3189168725808,-2068.7977008638254,-1726.204387409124,-1414.6479216662433,-1132.5892290075446,-879.1020194895628,-653.9905047045872,-456.91153203527404,-284.0807474680387,-126.32015222629224,0.0,-93.58949661809338,-216.29170716705843,-345.68601253693004,-465.72109497870343,-562.6228842732634,-627.5752910964527,-658.1794700483001,-657.1731601331057,-630.1328143276003,-583.5064170893056,-523.4076794731258,-455.08899317300774,-382.8660531342297,-310.28338399562114,-240.34358757737087,-175.6101715174102,-117.97404095591347,-68.15617396065629,-26.41233712292353,0.0,-0.07226047906648975,-0.018065119766622437,0.0,0.0,-0.46400796329607463,0.0,0.0,-0.021280816115725746,-0.0053202040289314365,0.0,-1016.1713708785253,-1959.7533551669067,-2883.0612063823974,-3832.1093184857964,-4837.064545866658,-5914.726002719407,-7068.803827226555,-8287.803267741332,-9541.232042904865,-10773.101742246126,-11889.284855283893,-12730.656421989344,-13011.652028745599,-12166.886725964934,-8926.291046959546,0.0,0.0,-34519.49698550058,-44133.90781822672,-49874.21332979405,-54554.988394506225,-58176.25243477088,-60454.433202164604,-61235.81958545986
-2946.473561276364,-3173.7138864364388,-3365.4664125463305,-3524.2653810175184,-3649.5411926900456,-3737.843159156675,-3783.201649402561,-3777.6242894229663,-3711.6835842536857,-3575.123368822081,-3357.3840249029263,-3047.9260685753684,-2636.2564623290054,-2111.8754075885827,-1466.4084188557665,-712.2191070404054,0.0,0.0,0.0,-6000.544804791785,-8928.663270484465,-10189.186262798103,-10851.865241558493,-11383.454270925817,-11907.086547280554,-12383.636130725366,-12706.277283874331,-12753.990577888504,-12429.621492433362,-11689.562330573392,-10561.251043995777,-9140.824179468225,-7567.511820396075,-5984.15638608152,-4504.677255402314,-3199.29256505833,-2098.8041659280157,-1217.3083604818103,-570.4874606810677,-186.0170925568686,0.0,0.0,-958.740459136172,-2310.6979617974166,-3864.428183097532,-5614.054200085418,-7529.84107191836,-9527.239736936404,-11471.498172223848,-13203.625197206375,-14581.283804169288,-15522.745166202587,-16028.009574601545,-16164.033824088847,-16024.508766360239,-15687.27421291792,-15183.93427367799,-14484.922160326809,-13498.63879503092,-12084.241604824041,-10081.772653470647,-7372.756914707023,-3986.732972455117,0.0,0.0,-43.941142031081824,-72.80329939164159,-91.0751412902979,-98.20786919182733,-91.63473953561362,-62.37331654304098,0.0,0.0,-1803.141868485702,0.0,-12103.483784573113,-17336.558855882526,-20632.2300270749,-23931.69089786371,-28150.669785526297,-33734.8913243172,-40615.84841316213,-47809.4725070905,-53578.91995686247,-55038.432642011445,-23113.934054877067,-8716.362330348711,0.0,0.0,-11319.315774048326,-9908.772298458207,-8003.430627827132,-6732.315375146433,-5889.718680913767,-5251.640992824369,-4699.757643872775,-4188.099345825412,-3704.942629378156,-3250.5034584603463,-2827.14380494022,-2436.2242922606906,-2077.701519361722,-1750.560523562516,-1453.3433081635,-1184.5624894353805,-942.9501872997783,-727.4530956132938,-536.7965943176647,-368.76991226704735,-221.19986455790567,-97.97979179008708,0.0,-109.54900167882435,-221.90429954823975,-325.9614973676865,-412.4421480539654,-474.71271586145696,-510.43002897033284,-520.8260184480308,-509.3417569900792,-480.3975194136288,-438.5402972546043,-387.97186296039536,-332.3675051611984,-274.87200343215767,-218.16207971833109,-164.47725460344054,-115.57538816824794,-72.76110069512764,-37.49317453103825,-12.807675577181461,0.0,0.0,-0.1474021963474581,0.0,-1.1542800722962243,-4.153112356597177,0.0,0.0,0.0,0.0,-1131.606049062854,-2114.3381528979894,-3094.7870405426925,-4136.823725158421,-5280.319349343376,-6553.591822015661,-7973.978301738617,-9545.46658181879,-11257.070374016817,-13082.193083030586,-14979.079753261649,-16895.917488265164,-18797.09831140837,-20777.58872255976,-23538.277499063013,-30367.979645626823,-55608.68705175496,-51589.5226154831,-55903.05032436265,-61301.68871736276,-66305.20622804735,-70201.66241002227,-72467.52889093313,-72842.07037023769
-2570.1230474161935,-2876.7774422719394,-3153.565338015672,-3400.8087585418284,-3615.9714287845,-3793.5836250058164,-3925.5010996205547,-4001.444960763557,-4009.7611353550187,-3938.3213148026284,-3775.4825492201385,-3511.060812628899,-3137.428021868066,-2651.309267862406,-2058.0760019037025,-1382.4683340862846,-685.2632530629801,0.0,0.0,-3552.4272066484646,-6246.16045569924,-8203.963716449874,-9755.716112310527,-11129.411227394987,-12399.98224737515,-13518.282122845005,-14355.991787029616,-14754.503901076047,-14577.385487319654,-13762.11427610308,-12357.68787924334,-10528.331114644556,-8508.851448326075,-6526.919165757503,-4746.447503357997,-3247.2188782616154,-2034.8497384160548,-1103.0717712228932,-461.7850353625919,-173.58091965021214,-46.521553394636705,0.0,0.0,-1776.9616296620554,-3591.319589035911,-5677.5297635776005,-8052.237908620838,-10612.214727826615,-13156.85911615593,-15432.12959450374,-17201.80447565917,-18339.277404533033,-18872.568103361937,-18951.482623051674,-18764.568411376702,-18463.26495454717,-18117.20389315808,-17697.390880920088,-17079.626341370804,-16066.621007056416,-14430.22948429396,-11969.372584918929,-8574.178742687196,-4313.113560503407,0.0,-20.63223690883276,-38.587805604249745,-47.461504333180265,-44.95414890904282,-34.14722211116411,0.0,0.0,-2344.9843620114034,-7212.567516811744,-24702.143967090953,-25284.16161989093,-25541.145155107675,-25531.788397196146,-26335.97210821442,-28245.497053695377,-31098.913674663803,-34319.594200038155,-36679.58373817102,-35922.73032748738,-27476.896317901857,0.0,-2397.1893792765604,-872.3951978730408,0.0,-25199.894722537123,-10478.513463439576,-6805.386842092192,-5678.15204964819,-5196.562890398843,-4831.460582022213,-4443.74054098582,-4022.7204067474954,-3590.156510917772,-3167.1969825860633,-2766.9938082169465,-2395.7329659652614,-2055.223596002244,-1744.992911268959,-1463.6023263358352,-1209.3672578048897,-980.683165286389,-776.0751128448832,-594.0518502234273,-433.00245187270986,-291.7296076333908,-170.7193051933429,-71.01476672482637,0.0,-106.42068660951973,-203.77844688984004,-286.47149471345847,-348.4033953250812,-388.0019115235485,-406.3591276986109,-406.01067577106255,-390.20160632053194,-362.3841271712731,-325.89065625277635,-283.76010111801554,-238.67504485348425,-192.95547326035873,-148.5613790097756,-107.08915641851208,-69.81966612056928,-37.99158472892092,-13.737527777687754,-4.150850804648703,-1.4356852840593815,-0.5896087853898775,-0.21056389548598825,0.0,-15.458169465536352,-57.679565913697,-147.3088698698632,-317.4305783713671,-650.8547699656423,-1395.9146954190255,-2271.206200479435,-3244.9251216205666,-4340.07924588584,-5593.797367216315,-7045.343705902486,-8728.051055678336,-10663.01447087165,-12859.389881560104,-15319.520560452967,-18048.9236869544,-21076.835567130744,-24503.235104392963,-28608.0924474613,-34081.25067020096,-42324.9541244976,-54574.700128806646,-60326.85623458207,-66587.08230122167,-73124.28515896547,-79162.48557462826,-83857.66227900248,-86371.9497782052,-86228.773722549
-2226.3612160075495,-2609.709302255457,-2971.210756561209,-3309.435083512741,-3619.954476355712,-3895.0212461480373,-4123.776644649622,-4292.895795244903,-4387.597098117351,-4392.9205051823665,-4295.166169423814,-4083.408505574758,-3751.087158007381,-3297.8589298399115,-2732.1189278952247,-2074.315571558166,-1358.584955886917,-627.4763760810123,0.0,-1963.003770565378,-4299.588008440995,-6624.792619122367,-8837.625067383671,-10978.493302888333,-13045.150321841482,-14933.519729288028,-16444.905364120015,-17330.64932684374,-17363.303825280454,-16423.822844568043,-14579.056346267878,-12105.962002338954,-9412.644518644747,-6868.22193919632,-4706.975143170935,-3008.285983478992,-1690.304294346137,-698.3440163922576,0.0,0.0,-12.505294669649357,-3.4996255334021114,0.0,-1205.8305532108004,-3046.3615126575482,-5452.511381616231,-8389.371499683975,-11712.529037067281,-15111.602293238762,-18166.239241624226,-20454.537911868105,-21760.003658510188,-22171.515415881364,-22004.77348043937,-21619.031301738934,-21284.027934339727,-21124.240646061775,-21107.826668832353,-21055.87022132324,-20672.401568820038,-19603.16531754621,-17500.336532197747,-14027.503857098342,-8678.279292231204,0.0,0.0,-13.454181783345227,-15.228921529131373,0.0,0.0,0.0,-1261.1289966218915,-2167.370047102409,0.0,-20705.138538819367,-38789.87430369219,-34012.07266455924,-29617.80733495037,-27634.913171732158,-27396.433722424503,-28095.673129955612,-28884.0318687833,-28666.538654486525,-25955.521829056135,-18946.422557953854,-6990.704084777585,0.0,-1092.39144922901,-695.3422332707968,0.0,0.0,-3061.451245514296,-3978.3431155002513,-4386.920278650532,-4433.897937417418,-4221.02356761885,-3868.885267312725,-3465.7660637775734,-3061.1341914546074,-2677.901517184462,-2324.4902036077,-2002.4670214766888,-1710.5852305996555,-1446.7058565193358,-1208.6210752944503,-994.3401248744286,-802.1123583945847,-630.3332564453061,-477.4584484616777,-341.9968166540724,-222.15305924239897,-113.33976355966637,0.0,0.0,-96.26010886869727,-181.26198858495007,-244.42745920186468,-286.8150941001733,-310.5979050518066,-318.14021207503345,-312.0141029261686,-294.90394885718536,-269.44653376142634,-238.10719820460784,-203.11260160340913,-166.42338945984736,-129.7236317567938,-94.40019237545727,-61.43682263971762,-30.915970486388918,0.0,-1.430190156847786,-1.0022815461990715,-0.5647837656667999,-0.2526467965541443,0.0,0.0,-67.95122581518505,-214.12533881109954,-471.55868111255205,-890.0738209250851,-1529.9917860641713,-2329.646865481063,-3273.6280428021314,-4384.77082250087,-5709.447230414737,-7305.934651128403,-9229.867826322574,-11519.150455967529,-14197.954221242235,-17287.57569842337,-20820.258981594423,-24859.2661084176,-29530.914214447424,-35070.29541810856,-41853.67873874209,-50275.88619009137,-60038.30325482095,-68556.12005908786,-76994.13766811087,-85445.88423592136,-93362.78883446364,-99694.55156032092,-102933.83442948681,-101850.87719487217
-1904.8933342575824,-2364.4894470016798,-2812.135190844974,-3245.7684348094053,-3659.392405744389,-4042.772621316396,-4381.690896817075,-4658.766961455654,-4854.81341044189,-4950.599804874033,-4928.855339689056,-4776.321904486322,-4485.654947068883,-4056.9218466330217,-3498.2263701854254,-2824.0909007038163,-2047.2851305864608,-1151.320756715291,0.0,0.0,-2364.3955117872133,-5157.994248149079,-7991.499060304635,-10901.787689346535,-13868.607362705085,-16725.742690729116,-19159.4623613409,-20759.886040746114,-21121.359433149402,-19990.81857759874,-17428.75407205493,-13903.81715903677,-10167.54352596759,-6826.34951296982,-4204.945521628796,-2388.6458352055624,-1019.7375323879248,0.0,0.0,-16.62691076884705,0.0,-1.4932077180317425,-2.4732060986936344,0.0,-1935.786640813298,-4696.786276748242,-8340.21280179481,-12736.93448018034,-17410.790349092276,-21666.697318775627,-24690.115756895193,-26074.69645397275,-26048.72985614068,-25277.078845280543,-24422.77053067731,-23929.590976097075,-23987.921295017415,-24553.823151690252,-25363.645279474666,-25963.968882480724,-25809.71211977563,-24401.320868525378,-21357.233839789595,-16372.506857844864,-9152.698657781131,0.0,0.0,0.0,0.0,-560.1404788670994,-1362.7712599668487,-2877.14615175051,-5063.367037245851,-8728.00613276484,-19328.53668750072,-30960.189794587794,-42099.46508755954,-31292.456456647786,-27189.440912933846,-25609.652894661926,-25003.31452238327,-24454.32261752779,-23147.018126890085,-20286.39650577595,-15362.568487264029,-9016.394028416462,-4458.269988433647,-2801.828501552347,-1688.9775543866128,-744.1773396428114,0.0,-1462.075036443358,-2786.8489063115467,-3938.8771947220134,-4296.18734911573,-4137.570555772501,-3766.0310644142737,-3342.888320108693,-2933.672237483318,-2558.987900431954,-2221.85934385244,-1919.5690882223726,-1648.1751636297577,-1404.0148219004977,-1184.0710872664076,-985.9439228081526,-807.7009585432388,-647.7103845917202,-504.50128150480333,-376.64616067406314,-262.55635773640245,-160.19123103227886,-68.4251024931643,0.0,0.0,-97.88889155578195,-161.22935879725713,-204.23310062347724,-231.0771863334131,-243.9381645511008,-244.81064445192865,-235.77103156987806,-218.88433173114043,-196.1095563355846,-169.24477389570075,-139.90185121883079,-109.50956618209727,-79.35115868680735,-50.611461576456,-24.23547457691742,0.0,-0.5676282765435265,-0.5784669782225371,-0.4145979345243339,-0.23523952506394333,-0.08400582667277297,0.0,0.0,-169.68258273454427,-464.60499516937745,-907.8900619717875,-1504.3317857543807,-2243.7614645240255,-3135.1694025825827,-4215.9288212622805,-5553.286141023692,-7239.079912553061,-9366.335224312152,-11985.76539874285,-15125.700953836133,-18812.569146298658,-23085.270558751465,-28009.055805916025,-33690.86037055402,-40288.49642319907,-47987.28283613233,-56886.6088116228,-66746.50682224703,-76865.18327174263,-87387.46427963089,-98302.32549340231,-109148.23418289858,-118623.9209159729,-123817.95940186271,-120227.25548225621
-1595.9009709432887,-2131.2214478098686,-2667.0738708488366,-3202.113034266287,-3729.076260010954,-4234.988259975432,-4701.449791305097,-5105.670232065093,-5422.292268614317,-5625.8124006579865,-5693.335803512863,-5607.370979755042,-5358.290811952392,-4945.9488065978885,-4379.77517300442,-3676.5375748694005,-2855.144611047952,-1930.521841815645,-924.6759864506649,0.0,0.0,-3651.2903103447948,-7068.5900545643235,-10768.552178786838,-14801.750229467165,-18941.383095890546,-22707.31737131341,-25428.075182094308,-26371.431396063846,-24989.339872364562,-21241.32578903954,-15913.010226150725,-10527.363724367673,-6064.6875607565635,-2897.811859994741,-1321.6144238000759,0.0,0.0,-67.90109813312826,-66.50764632955395,-35.721829912681734,0.0,-8.399619437630879,-31.125281843481694,0.0,-3058.6370491679972,-7537.763564528073,-13484.212421413959,-20127.936095174882,-26399.65463285323,-30564.54355181967,-31799.94981547349,-30671.642782457697,-28632.056398979992,-26865.396916907186,-26023.661421014403,-26344.04936642222,-27755.92019976133,-29880.941480050715,-32010.140432308162,-33270.417523771655,-32938.02392411326,-30627.62384689785,-26301.830957997852,-20238.296628061576,-13288.650651191087,-7699.280391935604,0.0,-219.44768239826377,-877.7907842537991,-2013.7986709203112,-3821.3177393578667,-6480.946429653508,-10520.121700021607,-16920.813465261992,-23622.88451864726,-28266.166481526107,-26263.11421467768,-24220.742870299535,-22849.424101068205,-21853.611001674893,-20782.92733171225,-19180.815900607366,-16680.47852144417,-13201.0615649149,-9254.034050802233,-6014.857779814409,-3967.6752584501023,-2514.562288192435,-1287.7318618449085,0.0,0.0,-1768.1002906553044,-4285.552262467135,-4674.403730823306,-4267.040267861111,-3714.7801431202156,-3206.0839452988253,-2771.6785695591966,-2402.518535169706,-2084.3902147757844,-1805.774854622228,-1558.5315430268531,-1337.1072075109914,-1137.704554117268,-957.6635430482436,-795.0371881122385,-648.306058698426,-516.1901461248882,-397.5301976083033,-291.2349877790371,-196.44370514544408,-113.50918110706402,-46.45383996893987,0.0,-49.06421884092203,-98.36798380790697,-137.81076326306848,-165.53957510727125,-181.72461534403197,-187.51927876057138,-184.48520123926207,-174.21020525767688,-158.2019215108933,-137.8550864249818,-114.42967533768052,-89.06162306595931,-62.88341461322023,-37.42239040238239,-15.414466244824954,0.0,-0.26185597110402625,-0.3293601556235726,-0.279901469144466,-0.18970754250490734,-0.10078378162740612,-0.03741402966578959,0.0,0.0,-309.2886626086958,-772.5496600580204,-1335.6838515937816,-2005.8978330767893,-2807.359318633805,-3790.488964455484,-5048.6886548528255,-6730.763699526703,-9010.62783779551,-11931.875052605243,-15506.515155022353,-19751.729494437932,-24699.19843536391,-30400.826333315385,-36934.97519839735,-44405.54723938251,-52920.347553559106,-62536.75959168544,-73195.93215520363,-84770.64213990429,-97388.21090630804,-111227.71950009887,-126303.90171303159,-141834.9387415153,-153486.8269992829,-141225.50713316037
-1292.0654045305935,-1897.4228125342306,-2522.827401529859,-3166.5354174631734,-3819.8134095117707,-4466.656622519216,-5083.452173754202,-5640.17439695933,-6102.87555953843,-6437.024233814441,-6611.306922048663,-6601.53768778796,-6394.190608100706,-5988.809244576626,-5398.389506448984,-4647.140867621514,-3766.2348167347213,-2790.9465907960916,-1768.1823681602757,-788.4962672810278,0.0,-2378.5773697038358,-5863.019440108364,-10302.081909833905,-15628.459878607997,-21530.724110310002,-27300.351210018336,-31873.668480564764,-33946.953635394704,-32353.785995537975,-26634.20077399542,-17979.53544822127,-9964.214289277945,-4007.2254625086266,0.0,0.0,0.0,-208.67772960480963,-205.096759308409,-145.78075529937507,-76.37967702448435,0.0,0.0,-116.10154560232502,-433.2810397829903,0.0,-5267.995764716483,-13534.221910337224,-23217.096004037754,-33239.45302880691,-39368.46714563347,-39888.93047991485,-36205.84950577852,-31714.122069574518,-28383.11538678875,-26955.62619634483,-27608.7147180809,-30244.889950670447,-34394.08636832843,-38925.262984176625,-42323.82436457005,-43452.764106150215,-41913.43533712635,-37968.92144300341,-32210.02617738349,-25217.040327667142,-17508.478903405932,-8550.914601543307,0.0,-717.7764757693593,-1993.3152575195402,-3913.3803131313716,-6518.980148409615,-9950.722020538555,-14211.7125392095,-18344.370198714823,-21079.20416825714,-21273.093203931763,-20580.99439107411,-19713.691671432865,-18778.779912784044,-17642.96144967037,-16112.841019619349,-14053.641256578487,-11507.166093954866,-8783.8235004414,-6379.45230902365,-4539.452800355929,-3113.864683806643,-1892.1879043501028,-756.5313188813345,0.0,0.0,-6760.827846062145,-5848.835061063544,-4541.40666281857,-3619.965319055861,-2994.988774844893,-2544.4395882721187,-2195.017484746662,-1907.4081544867063,-1660.6086010876081,-1443.0689740306445,-1248.1779372834562,-1071.9764031315285,-911.9685295239747,-766.4782121530736,-634.2865333934039,-514.4230614194734,-406.0495078118355,-308.4096997821774,-220.83942706184317,-142.7140806310476,-72.30618029772675,0.0,0.0,-45.36759433038173,-83.10239351362073,-111.5457354885743,-129.9014429571877,-139.05665400706636,-140.44028936892542,-135.2693665494153,-124.63283802533309,-109.54397495565561,-90.90014064095254,-69.42383613084098,-45.69848629773298,-20.780219175028844,0.0,-0.04858515484159379,-0.15043545224937868,-0.19721620402379983,-0.1859402439257101,-0.14290539418451884,-0.09200772766679118,-0.04887233703616613,-0.01848401843594567,0.0,0.0,-537.336075287807,-1059.956145102646,-1636.7867217410903,-2297.881105402056,-3089.9791013045706,-4120.215860950305,-5624.658449894884,-8013.5374453211525,-11224.591905160914,-15216.755222442462,-19988.635361736397,-25558.96749297885,-31960.07604841454,-39242.6670210681,-47478.36996789901,-56751.80074613472,-67144.15005764803,-78729.82028867908,-91633.2424559659,-106167.0179397103,-122916.44012204118,-143004.71465747643,-168925.10555865613,-168846.1570713123,-159714.01800782487
-983.3825907267063,-1643.57811867188,-2360.2789293180767,-3121.3895291093495,-3916.987295850474,-4728.374824164876,-5525.53024044722,-6268.702109854674,-6912.013903008463,-7408.104634481063,-7713.332498758135,-7793.2846674577495,-7628.126943770551,-7216.710087377494,-6577.834499654884,-5747.403026093752,-4771.708324218847,-3698.8481295411225,-2568.6111015472648,-1385.8028905285203,0.0,0.0,-3702.8290750139413,-8948.297268721879,-15879.284951514242,-24252.704532575226,-33089.697677993056,-40819.29703332163,-45188.9318314567,-43844.65248881583,-34962.15791410855,-19406.717664730077,-7342.732988502005,0.0,0.0,-1082.8130886715835,-908.2585684070101,-629.6141984845549,-398.02748008554033,-235.13895346609058,-124.01612884279561,-46.42064709873944,0.0,0.0,-1617.0231280934336,0.0,0.0,-12167.58928511238,-25966.782288229588,-43972.60708338425,-53780.95616794422,-52181.47036101882,-42548.71712407454,-33635.48139473238,-27997.331651095432,-25807.030509582313,-26890.313775562667,-31220.86331244347,-38525.281081053996,-46973.03579697429,-53646.891331236664,-56635.81245031939,-55604.47043125673,-51450.42868133513,-45415.87710801015,-37861.03041948541,-28566.69735106018,-16695.18733215136,0.0,0.0,-1328.3059508527017,-3319.908835357011,-5730.872967198038,-8552.075275565441,-11630.946481510502,-14463.681926602594,-16433.189366180366,-17169.06269051618,-17116.452404336746,-16645.57069950368,-15904.857710005674,-14897.299438782062,-13573.94708152021,-11914.080708243784,-9990.139094032886,-7994.642339717075,-6179.675734939571,-4696.819351959365,-3509.2559962799887,-2410.623885242387,-1133.9374170751187,-1368.5945149671902,0.0,-16908.924068935587,-7418.702017211341,-4429.786019840518,-3228.685715248154,-2609.466269169195,-2216.073548296573,-1925.703686703339,-1689.6163436409568,-1486.1824475891135,-1304.9578406439746,-1140.5591894458803,-990.0546152387002,-851.755981701201,-724.6206175326699,-607.9388190357332,-501.1660736925183,-403.83508527617533,-315.51488674139915,-235.79023035719945,-164.20153911668612,-100.05680286623516,-42.79623995072158,0.0,0.0,-37.685480972459885,-67.63953037621954,-87.27876698908071,-98.36560494158374,-102.94993567996104,-101.79413354572878,-95.5160890853709,-84.78783473135746,-70.20307613963499,-52.03509451872046,-29.70647527184253,0.0,0.0,-0.043905167117279334,-0.09408447902860514,-0.1231289642972855,-0.12373790835101911,-0.1039660626417817,-0.07546939782022313,-0.04758357237714361,-0.025063736708244203,-0.009197332528225959,0.0,-316.83850404620296,-730.0179450676884,-1183.4118218887536,-1657.3993034984574,-2151.3305030218553,-2717.5372721688263,-3634.1168369035754,-6194.271646855391,-9736.199976861339,-14147.27856416607,-19427.089353925505,-25587.96026388522,-32637.843503912234,-40597.24704623892,-49513.46505922363,-59464.33561527036,-70558.21982724563,-82945.95671954539,-96865.4896962119,-112730.17851783684,-131266.30863152843,-153873.4114674096,-183760.06371992518,-193258.67793943692,-179668.15232079732
-579.1528319999002,-1333.2290624682148,-2153.32191169253,-3041.7580232104137,-3998.3732536421544,-5004.327226029328,-6021.594160834526,-6997.09237912697,-7868.37590761769,-8570.050559564112,-9040.636418836702,-9230.144108053419,-9108.324832886192,-8672.071871627411,-7948.837325382458,-6992.930056558757,-5874.34864039516,-4664.127479059434,-3421.61165526916,-2186.1044748362656,-986.8783806720663,0.0,0.0,-5908.9941147022155,-14687.679830367757,-26511.113932949884,-39986.44129015866,-53124.89410082298,-62144.82827886257,-62873.73782713381,-49963.06315714992,-17342.445205469998,0.0,0.0,-4159.922492215023,-3422.9939844815935,-1920.607104090277,-1003.4930811089243,-522.2600447163964,-272.7314684671336,-138.1252465890431,-61.66646250084725,-19.299112894937217,0.0,-6034.813374486069,-6274.5058899166925,0.0,-9169.35806422008,-24509.84620037035,-62903.25217319912,-79601.29757959224,-72507.29395207336,-48172.08095914456,-32281.767386296433,-24163.71247015154,-21384.865633926696,-22924.665637866445,-29222.993564059343,-41513.17217002036,-56794.7495547433,-68654.94048971926,-73839.17416433303,-72418.25474012403,-66812.49238774703,-60142.06561206588,-52244.54319913506,-42202.1200261887,-29663.151514033052,-14943.449348915094,0.0,0.0,-2307.076880934392,-4532.528916744591,-6895.761529675476,-9296.318656940643,-11446.224592383132,-13020.811869109186,-13853.51901645087,-14070.184926001511,-13847.283843105211,-13297.783293754492,-12467.433664530296,-11371.568954081837,-10038.596855206819,-8544.668375828838,-7024.9318940810035,-5647.789567099418,-4558.8933081519235,-3815.7163365556653,-3107.1143664919687,0.0,-4340.4407987217755,-5524.826693467136,0.0,-2487.2629273472667,-2530.349696293289,-2255.5252685508613,-1998.1170567867673,-1784.6846698194718,-1602.1073925720739,-1439.171109293851,-1289.547028992089,-1150.020775491838,-1019.0463880950483,-895.9269092251697,-780.3801857600788,-672.309476879327,-571.6820692932146,-478.4673447344761,-392.609886330831,-314.024542696955,-242.60507727498245,-178.24504897887252,-120.92325608842155,-71.12815878738468,-30.95442606122848,0.0,0.0,-34.04813805476473,-53.20848968133371,-64.17706309022898,-71.19971486360853,-73.44114286817025,-70.84955003906646,-63.88819874477029,-53.08923466751105,-38.80699053256438,-21.092320270917003,0.0,-0.010052173576587763,-0.03295103459927131,-0.058868332451096614,-0.07747726578667076,-0.08191636254059817,-0.07375155021297104,-0.05832022859697973,-0.04092881794574016,-0.024990023493146978,-0.01172559340546481,0.0,0.0,-359.86531771639403,-709.4433296266609,-996.973799113994,-1140.4063524620829,-964.4859061577273,0.0,-3393.232369730188,-7378.657853873937,-12209.069788612665,-17984.483334623204,-24727.940837255825,-32406.090812940834,-40995.01277858783,-50513.907805378985,-61033.85704392039,-72678.43714648583,-85630.2973069628,-100152.58133917431,-116621.89805341765,-135545.2046644004,-157462.5590952334,-182212.0076873353,-204939.14783431802,-198018.41194743422
0.0,-956.8640950993621,-1878.0226825356274,-2893.948777207024,-4030.422162077546,-5268.968650974899,-6559.429045353286,-7829.69980596793,-8994.349423346288,-9963.088014750025,-10649.021276555479,-10978.33323260296,-10902.959000809598,-10414.417633209361,-9552.515003658147,-8401.133056345614,-7068.630188756179,-5661.70263389316,-4267.604369809822,-2950.125456150551,-1761.4092600373071,-771.0924126092953,0.0,0.0,-10451.32789085972,-27117.632850456615,-47220.063481873614,-69549.01493175034,-87391.7549698894,-95542.4124308369,-84673.91479213744,0.0,0.0,-20198.22046176842,-13216.696731312866,-6528.6336343502335,-2347.6829349976356,-941.4910445460287,-414.7881812331793,-195.40164479859845,-94.08693393305124,-42.82084637820003,-15.529989818284312,0.0,-16247.731509601464,-19063.216171968925,0.0,0.0,0.0,-103529.27911883341,-129213.7114182034,-110074.34561428348,-45350.55669808761,-23155.80384746037,-14990.894468247187,-12644.06505009167,-14200.504777863674,-21233.295945653022,-41509.70020281773,-70037.89985137043,-90339.0065915863,-97647.75202828583,-93416.9436303998,-83239.27890914197,-76095.40505267054,-68773.00673348473,-58334.129171216926,-44811.878375766624,-30110.66113093572,-14562.446127265875,0.0,-1375.8705120391435,-3196.4056859564416,-5202.125455704181,-7212.345024412332,-9004.08956808137,-10350.31846056267,-11154.020507295772,-11463.488098303127,-11375.599714156777,-10971.560771099126,-10303.085334746833,-9406.30014987255,-8324.0709240253,-7125.006849780183,-5912.628177896348,-4827.657958381483,-4075.2483963491504,-4087.6019325875654,-6202.117360047137,-15498.892541564932,-10468.342554515595,-17758.866113698674,0.0,0.0,-948.8245774503592,-1264.948617459202,-1342.7920343223104,-1322.4406989104696,-1258.8701237480773,-1175.4136926627002,-1082.8138051561439,-986.5318661573194,-889.6787000249493,-794.2264690734738,-701.5283955803554,-612.555054026214,-528.0126540882701,-448.4113654284008,-374.11258648752664,-305.3683322495631,-242.36049673448528,-185.25033093382035,-134.2630190860038,-89.83871641812698,-52.68954702751679,-22.832244353935103,0.0,-15.344532161506493,-27.32999059126161,-33.93444287439137,-44.230717816075554,-49.92117302427899,-50.55276945795615,-46.82617554114777,-39.458673253075766,-29.011312673109803,-15.855815279261375,0.0,-0.007257659707239977,-0.018978465252470114,-0.030960550390480242,-0.04599540385881602,-0.05269872581336326,-0.05080354707467613,-0.043131148411587196,-0.032821447318535,-0.02224194591580248,-0.012715017602198975,-0.004825925804690077,0.0,0.0,-297.52238650542705,-480.64621887501755,-448.83520811573874,0.0,0.0,0.0,-4176.129325366338,-9325.859471829337,-15573.833455101096,-22933.229060938203,-31263.566281786127,-40462.80562441455,-50513.29653686256,-61478.74782504375,-73491.37464013806,-86744.21426668351,-101492.64055122744,-118059.62794531975,-136830.05312681143,-158219.61280173415,-182686.26032589597,-211614.34993873953,-220274.89016691153
0.0,-616.205151153545,-1507.9567930855117,-2625.5934298582456,-3960.399498523495,-5481.698036078619,-7117.455739908096,-8767.930825577918,-10316.236635733057,-11638.93362478607,-12614.030340209138,-13131.211430730518,-13110.763082645422,-12530.127238560903,-11445.674310537375,-9990.45896331199,-8337.338059433403,-6646.4497765470605,-5036.9786706884815,-3585.3843453784766,-2337.5411519879935,-1322.9605425631446,-546.0822788665289,0.0,0.0,-24288.028967214814,-52227.1696274489,-90459.35396437312,-122330.77226946954,-147230.24987349001,-143965.2725302663,-105498.72279447144,-90143.21392678344,-67576.1886763732,-21980.01160012577,-7127.161308619001,0.0,0.0,0.0,0.0,0.0,0.0,0.0,0.0,-39892.91460291915,-53730.64405513249,-55370.93347606774,-60642.53131159437,-73029.13511808413,-107353.12011527478,-115603.58958634624,-87045.77963883532,0.0,0.0,0.0,0.0,0.0,0.0,-33254.46877506094,-91508.20520007503,-125015.510615837,-132995.96315522012,-120362.5633923086,-96632.34347233937,-92227.3382877095,-88418.01583260714,-77549.56903373066,-61139.6167605548,-46124.902371089214,-28139.138745147357,0.0,0.0,-1675.0991825707351,-3503.9919879529734,-5346.850045887021,-7007.4748345900125,-8222.356890061541,-8948.761244027768,-9254.151536172292,-9220.069829831746,-8909.77782112335,-8367.049269348312,-7626.477396296492,-6726.381404208563,-5718.66109576282,-4672.9168521027195,-3674.9662607618893,-2826.8407421318752,-2257.3258560202007,-2114.860804016834,0.0,-4275.172420745167,0.0,-747.7977444774983,0.0,0.0,-512.6525972007521,-785.6617752470246,-903.4159816976519,-935.5187270432117,-920.799750353126,-879.7626518988839,-823.6142037380345,-758.9100967915538,-689.7718912938134,-618.9518927221663,-548.3697079084359,-479.4021447544182,-413.0528921037764,-350.06077599446934,-290.97571533491566,-236.2182568366966,-186.13276734539377,-141.03977937438825,-101.27414537860645,-67.13280414897491,-38.63943170253804,-15.815810531725196,0.0,-6.832497647815402,0.0,-21.867540502024404,-31.460061954915314,-34.61417922733272,-33.40506070879007,-28.90797013053544,-21.923771627538336,-13.319628173018929,-4.608230599331719,0.0,-0.0047446163131175285,0.0,-0.02284507344594016,-0.03207958978127124,-0.033632763863479805,-0.03057937065968412,-0.02498387700523237,-0.018441295253858576,-0.012066605286970832,-0.0065886856193064025,-0.002610042164243179,0.0,0.0,-179.25348491347034,-174.28826200217546,0.0,0.0,0.0,0.0,-5344.4053692485395,-12051.762033056106,-20167.575779939893,-29252.13976881033,-39079.34706802734,-49597.72508497602,-60876.46329283111,-73064.09955307373,-86362.54481180054,-101014.13890489149,-117293.92030349525,-135495.76734644183,-155899.57890089223,-178699.07110282502,-203748.38738192295,-228708.7364860789
0.0,0.0,-912.0065201859551,-2140.069619086524,-3703.885709734355,-5579.969978232856,-7660.767142080807,-9808.333544834686,-11863.7353782451,-13662.38243347343,-15036.958081915887,-15821.722144578847,-15878.757647988989,-15149.656714676545,-13709.598529317189,-11777.692562916409,-9643.815061598107,-7549.781115100332,-5648.477210735431,-4016.8928108047407,-2680.410908277875,-1637.1265713330404,-861.3686689765926,-323.5652075917385,0.0,-17807.316135538273,-46941.237366222114,-117730.46807693336,-164241.7420504626,-183211.83055025397,-195162.43551343327,-187886.4174206511,-187497.9552589945,-137983.31571750352,0.0,0.0,-44543.47615370615,-58294.933521633204,-62772.90695557912,-64254.75599217859,-64880.47168504717,-65696.29795662547,-67784.5475514265,-73448.87503628418,-89593.3259110729,-100595.5604901049,-107110.61149833516,-114170.11431709646,-124120.95337590108,-137250.5436040411,-138801.80827591475,-122505.22238147394,-91063.11795827601,-80328.58280392841,-75624.8641278666,-71599.01740878249,-64685.134023069404,-48419.80694459601,0.0,-137725.02611307293,-185218.97116840046,-188958.1285680001,-158405.09018254362,-90700.26544428382,-107763.67429372833,-115122.23651370738,-102306.59074307706,-76072.17855069587,-65110.24339134582,-51869.23599866468,-28754.579730130692,0.0,0.0,-1791.8956981581346,-3663.5927302512005,-5456.609024816549,-6582.879505014,-7164.521906655359,-7384.2919263286985,-7340.75429903597,-7080.434667199993,-6628.859097274407,-6006.180756397388,-5236.317704355207,-4350.340362560676,-3385.41260673377,-2372.449932176105,-1299.822668576995,0.0,0.0,-5695.157300796684,-6632.352659464786,0.0,-2991.1937072045125,-1920.4176125142724,0.0,0.0,-383.78649558974064,-570.04273641766,-658.9890656246258,-692.5039449810827,-691.8228649669251,-669.2522177068078,-632.5756102553561,-586.9991248652307,-536.1375941354343,-482.5697575707102,-428.1733414657115,-374.33729763582016,-322.101924083849,-272.25550875527466,-225.4040587689147,-182.02271133851784,-142.48919302806283,-107.08528717458313,-75.92809641383427,-48.776870128704886,-24.623811375114002,0.0,0.0,0.0,-11.779382237107447,-19.43735506602607,-23.038824787670336,-23.271917936145268,-20.84437493273835,-16.456175533489716,-10.89069518594458,-5.113294224308046,0.0,0.0,-0.004028470731727854,-0.013305300144909674,-0.019141796004354384,-0.02106854794140082,-0.02056969336290538,-0.018093394794702792,-0.014472752814382149,-0.010521422679926846,-0.00685216922808003,-0.00385148304211284,-0.0015683260707286548,0.0,-62.07945997324079,-69.06435533026735,-19.944849774377204,0.0,-0.22381372773374975,0.0,0.0,-7121.233587478315,-16433.172350939323,-26498.070072609447,-37004.71795144875,-47921.79362661926,-59365.280915510964,-71526.01569320717,-84627.72676187701,-98907.45020097682,-114606.14726862959,-131959.51730387495,-151183.86459454734,-172462.05803220547,-195971.3922133927,-222245.86167724401
-209.1097370301203,0.0,0.0,-1318.7935226630684,-3135.10486080123,-5473.530577212109,-8137.311288210156,-10940.903222713148,-13667.991649300835,-16109.905690886599,-18049.70064647824,-19239.964726763727,-19432.89188823888,-18480.146464239326,-16465.373210476635,-13766.899962745356,-10910.450337799353,-8260.383824233373,-5990.257287127645,-4153.2995042037,-2730.0835699715376,-1683.7664428182163,-938.7007562625946,-432.8922087494116,-137.55448163380998,0.0,0.0,-120568.72730396294,-190594.2795872272,-226212.91531819472,-265586.24320582196,-263386.5777700609,-225228.68961111826,-183157.46407371826,-127419.43697004644,-111922.79750738958,-119878.99689742268,-125863.38130335897,-128541.97244197744,-129365.68311382522,-129570.87447784812,-130120.21888535934,-131993.06971601266,-136417.68936629267,-144436.02585988794,-151947.7405940369,-158305.92452957726,-164806.4541226139,-172034.11917463772,-178726.39432803504,-179847.9777088542,-173110.27783346904,-161418.75887186272,-154626.44248998782,-150571.95222284232,-146086.16922020045,-138721.80556010548,-128994.16308816269,-123188.50286333846,-162945.57498012023,-182699.27161920638,-173108.444666928,-124440.01466382586,0.0,-133004.96851644997,-162000.78427173157,-140482.47698952374,-75732.33542539587,-86374.73538904868,-85473.04907774554,-63149.11977613413,-25542.857206980218,0.0,0.0,-2059.0213792482064,-4572.498140849011,-5488.038962457848,-5742.162076430921,-5777.745491181292,-5678.225020860948,-5442.350710914774,-5061.774182592393,-4533.0706921590745,-3862.36964467368,-3060.9709609664346,-2145.9438324814932,-1129.5984411643994,0.0,0.0,-10824.875174335908,-16148.297310472659,-16559.096155713934,-12790.904025323303,-9296.569614067324,-4690.480974184892,-1683.2568525887473,0.0,-179.4414759266049,-333.97941077006175,-437.8908645224711,-498.4041115169467,-525.772659471399,-528.9962072840324,-515.1410178848947,-489.5114204168986,-456.0296180678673,-417.59840316227036,-376.3841816912185,-334.02104781231,-291.75412777738796,-250.54034937940003,-211.11976926506154,-174.06483580369527,-139.80900222873683,-108.64972027068198,-80.71742898575356,-55.916144188596455,-33.90256627041517,-14.406105725550194,0.0,0.0,-5.812633380379761,-11.47115128441181,-14.831846921177984,-15.799411315382999,-14.741436130783585,-12.165860387738052,-8.673682812961907,-4.95425111195599,-1.7415674679012565,0.0,-0.002808582782532778,-0.007205860398713739,-0.010113746151722391,-0.010929938537997766,-0.012537460061069918,-0.012347256003859145,-0.010834898538838737,-0.008694163401817653,-0.006447085583188347,-0.004375394716282915,-0.002421821247287451,0.0,0.0,-19.944849774377204,-10.715043821745148,0.0,-0.8952549121686226,-3.357205925484482,0.0,0.0,-11945.810039233553,-23302.250331659736,-34519.66118393913,-45719.45072863063,-57136.85124761672,-69046.9557600017,-81714.8965736592,-95381.78811009647,-110263.70151206042,-126552.29025091017,-144414.30438035907,-163993.9044466494,-185429.26197627012,-208888.4835366346
-531.0374940562388,-320.35141525059095,0.0,0.0,-2044.210474661645,-5041.73752772285,-8474.046062138375,-12149.978749205082,-15757.42509892688,-19059.551215265896,-21811.97755207247,-23655.547832573655,-24132.70227263123,-22872.667353560555,-19904.850771990277,-15914.08610631261,-11970.704349824755,-8591.047937160361,-5898.869594829644,-3875.965017327926,-2402.8578494039975,-1429.1551247295483,-776.7758343052363,-331.7484402101191,-117.32573046098227,0.0,-92442.40505560827,-173950.1809467565,-251353.75873515522,-265459.3370714185,-283173.9584581603,-283996.15238825243,-266872.7956745726,-241998.44781351948,-214597.52174856185,-200392.79649586993,-197186.37848900407,-196737.67362279224,-196165.97499102287,-195095.19162618546,-193917.19224540927,-193220.7081346444,-193649.90575259633,-195792.87905658802,-199785.44946216984,-204453.56243251936,-209359.01118986137,-214715.78543289652,-220482.8085846156,-225773.07558521404,-228753.5720773397,-228669.29561116738,-226875.34346429023,-226186.6274156428,-225950.4913034222,-223452.06796584555,-215121.9302009386,-205646.71893105982,-200814.47989246456,-208169.7270926796,-209524.32898879467,-196336.57488488956,-166246.6564677905,-128184.72798270296,-150556.11124110466,-150593.7177376199,-110938.57446360259,0.0,-119183.43739694775,-140499.22647874177,-112826.07287494821,-39022.33507763665,-17720.434340601998,0.0,0.0,-5286.339248967103,-5054.628297790943,-4538.350172861447,-4306.308639977352,-4152.053673389054,-3948.9719768043883,-3642.8184448557254,-3201.959786252222,-2619.1203200011973,-1885.2306755988002,-1007.7936270200732,0.0,0.0,-16903.196688570653,-27151.244754490086,-31514.10550346961,-30664.870477477543,-25307.98149596699,-16713.71876209375,-5861.686543112184,-2042.5482498033982,0.0,0.0,-148.54257152438333,-260.19087797295043,-337.44898709097265,-383.8674659440777,-405.8189473287427,-409.48084787517524,-399.8759358006983,-380.8710698113567,-355.4100705462905,-325.74394922170444,-293.6085984413463,-260.3532032936058,-227.0320041426474,-194.4698443319156,-163.307870282719,-134.03226830162137,-106.98716971677686,-82.37576059795664,-60.267715390256484,-40.66420631439072,-23.721857800629227,-10.17778598755972,0.0,0.0,-5.80276977006382,-9.018000297247285,-10.352444273425663,-10.156097887275395,-8.792147073717365,-6.683924566209254,-4.288459942652887,-2.0120187596490826,0.0,0.0,-0.002595812516391716,-0.0031773896670285267,0.0,-0.006302952345117516,-0.007923270629960576,-0.007825421948102373,-0.0069732468216910475,-0.005866615005845382,-0.004781189012578731,-0.003743564217000475,-0.00241193478505251,0.0,0.0,-2.9704757528908994,-1.1668591939043895,0.0,-12.533568806427928,-46.777069361281804,0.0,-8047.81753296113,-20245.460128389786,-32052.225856367608,-43299.49701852135,-54415.71777337318,-65810.05973256126,-77803.1158847891,-90641.10438596421,-104514.5806560552,-119571.63804503239,-135927.15846246202,-153669.9936218651,-172863.26791950635,-193499.0330302592
-955.6903397836544,-750.3681689918732,-438.734334905881,0.0,0.0,-4175.164102498754,-8567.158372242082,-13427.542883047869,-18152.181614608693,-22558.89986312872,-26483.114269023958,-29437.550777403736,-30569.706013547668,-28972.973602982078,-24367.279541957352,-18013.891758652473,-12467.234794734612,-8234.235229514534,-5138.20897281763,-3048.8336478339907,-1576.2279880171898,-853.2205411051832,-407.4990938526049,0.0,0.0,-121455.73831602884,-195819.45971253936,-231435.8609640913,-275546.64797381085,-301096.7554270228,-317654.1445806037,-322551.32406743907,-316267.9416870791,-303366.06081703486,-288579.460089138,-277864.5474580436,-271736.11186820903,-267735.03078658145,-264289.1398510174,-260932.00065878933,-257782.0867557822,-255195.61594107765,-253593.07557752053,-253318.59118244247,-254459.46042092104,-256722.18862476182,-259960.922323505,-264215.0270525147,-269408.4218560428,-275129.7025370203,-280724.1210996694,-285938.17699467804,-291226.88716343546,-297294.4368119549,-303591.5337515154,-306649.9124724241,-292667.37974281894,-277656.576073533,-266253.27018729533,-259394.84669858465,-250892.07703059886,-236467.20167365216,-216025.62520676316,-195936.47086246934,-190441.3576245447,-178879.69320347172,-152678.28653852077,-118211.50404152196,-136778.3812696765,-133564.48994774904,-94916.35736634428,0.0,-31859.47210985686,-25727.150228974377,0.0,-11518.267708116555,-4905.800242146677,-3050.3094772948302,-2757.0900951325384,-2674.7124151121848,-2558.6674882859274,-2358.5695730633397,-2012.8308953010858,-1526.92193326105,-853.0381522149626,0.0,0.0,-24433.024712989107,-40461.60786032359,-49362.87848526732,-52092.08606062022,-49278.36601584747,-41062.483520083275,-26388.66511836356,0.0,-625.2501280148734,-458.4525442180085,0.0,0.0,-116.88109395588592,-207.33350050588447,-266.4292794423522,-300.93127935956676,-317.08750285479067,-319.64041833533514,-312.16866859741975,-297.42687396945524,-277.57296010445623,-254.31620698114722,-229.01809576247018,-202.76463171189113,-176.4197448041633,-150.6645427389244,-126.02503979265838,-102.89093720241362,-81.53073444654397,-62.11475522857094,-44.764689201946375,-29.639335299436482,-16.98928712187656,-6.919336245968957,0.0,-2.721927498596426,-5.084940224321991,-6.436267593797322,-6.7383640711753054,-6.1627054536470425,-4.98140843550507,-3.503645332797352,-2.0180476280422384,-0.7521090047230986,0.0,0.0,0.0,-0.007483910206194241,-0.004751078695071004,-0.005217452233025304,-0.005570271817414458,-0.005506786952336064,-0.005264938633755073,-0.005139182145656764,-0.005359311861980647,-0.005904174957334493,-0.005730125243709747,0.0,0.0,-1.696961024377682,-2.8104924530412396,0.0,-174.5747088624614,0.0,0.0,-17579.54687565004,-30144.285214133277,-41010.593865209106,-51416.46326907827,-61974.44970635272,-73046.40305653475,-84864.93311308436,-97581.87890724227,-111292.52303802069,-126052.6980265859,-141895.64387517053,-158854.7832543005,-177012.0417520528
-1470.633847659548,-1286.696590722625,-1004.5691733771789,-569.7716478569126,0.0,-3091.761378064311,-8191.881926210206,-14840.854956253688,-20864.86146496892,-26540.755876788262,-32124.03300193193,-37041.83953325769,-39735.6020400155,-38082.24577644645,-30577.405462377403,-19306.968948264963,-11650.109400449131,-6740.450199281821,-3370.897984707759,-1604.9329081354374,0.0,0.0,0.0,-62898.51013607902,-107560.23179914858,-177149.0907374847,-236558.07036771488,-280427.19427136244,-318300.2619647433,-345726.9424071882,-363794.5950684275,-372287.1162106986,-372281.64844865317,-366618.45972782694,-358489.7808261228,-350749.8972507294,-344158.57281512866,-338177.28675467876,-332323.64939085685,-326561.6889059722,-321083.6514387655,-316186.7160710213,-312208.32250922814,-309429.09373881784,-308011.7678632963,-308014.9762299254,-309547.6406112604,-312775.16767327976,-317806.3486687825,-324613.400751329,-333075.2512255776,-343132.6319772586,-354799.82976609294,-368172.94980079524,-384471.5606998267,-406888.95531223674,-371241.42153742485,-346059.2910835585,-327147.56776853063,-312264.7328244674,-298182.3750237005,-282614.98934536695,-265452.6409203452,-249094.6528181147,-236393.6383861831,-221805.87970114054,-202683.81211800297,-183389.78709416545,-176154.52143386583,-162064.368569119,-133275.09946035765,-93624.85435406906,-83990.55689477969,-71049.30262180306,-52344.92226920531,-35881.03671882592,0.0,0.0,-997.0324298789174,-1231.0404285827624,-1252.4174990251165,-1219.9625688481694,-963.8730049053626,-622.6987345416031,0.0,0.0,-34412.231880736545,-57270.588567048144,-71147.44826192185,-77746.69708535701,-78213.11004100605,-73294.12451462254,-63274.99761688873,-47778.49710796294,-25922.9803461064,0.0,-1208.5606470797923,-4375.7921371051725,0.0,0.0,-108.57464688224731,-173.5848793901619,-214.38939693517452,-238.2974763293795,-249.4295776067654,-250.73632451853797,-244.55580930038565,-232.80482305630974,-217.0651863015501,-198.63835338123818,-178.5886938742367,-157.77997140184235,-136.90552611995238,-116.51241992132033,-97.02081270068335,-78.7414913899976,-61.89588725587652,-46.64046408804278,-33.08150997135636,-21.220692695408548,-10.688058567047745,0.0,0.0,-2.163565507647118,-3.569321806266562,-4.1983853499817005,-4.138902234190644,-3.575358389366804,-2.726665324989331,-1.8044174149994905,-0.9903883908501858,-0.44095548760937725,-0.2104766689292569,-0.09325433831964137,-0.025184562131458903,0.0,-0.0026251878000976636,-0.0037314261532610266,-0.0042186905614321315,-0.004547170466503189,-0.0051512891242522455,-0.006650326198671832,-0.01011532803491925,-0.017016326122656057,-0.02474861513693695,0.0,-2.8104924530412396,-9.545008791033448,0.0,-651.5217669086398,-2431.5123617776317,-9074.527691217008,-19928.442236248604,-29934.774368051574,-39182.13009583358,-48265.091891683645,-57624.872946833304,-67543.11371655727,-78190.34630802987,-89655.47903373123,-101963.8773873025,-115095.46694262077,-129005.10080351279,-143648.17966571284,-159024.90479283038
-2052.3070170517617,-1921.2151807792254,-1723.0741262385795,-1274.5174214676756,0.0,0.0,-6267.7541823806905,-16879.135528972845,-23925.656229758235,-30615.232865941834,-38430.42688092243,-46870.17759903116,-53248.62246877906,-53043.00723084613,-40553.13146932755,-16986.471151891623,-8085.784754259998,-3706.558738385455,0.0,0.0,-47572.16010188408,-74173.94073502887,-100233.71601148567,-144033.830509926,-190193.3554453732,-243022.358978993,-292836.58030749834,-335414.63369893236,-371500.3187499927,-399716.2177314361,-419510.24226787913,-430520.96693285514,-433953.1503503667,-432336.4277195974,-428011.39034003724,-422486.77792606654,-415971.0921498344,-408491.9983336508,-400266.59465969127,-391907.57576179696,-383804.2454143643,-376259.4163387531,-369624.5579202383,-364177.8586850595,-360143.7188592295,-357778.49837388133,-357439.699517374,-359531.8701615504,-364428.6322838964,-372442.5400876885,-383831.10191818554,-398717.5323065661,-416667.12512887246,-436126.2615763379,-459233.1100347758,-480882.15980103356,-439350.4449671794,-408192.0299830147,-384013.4525343849,-364334.6587956088,-346958.25447753706,-330358.3242182698,-314075.9065451098,-298596.4933555688,-284233.31076599425,-269267.0278254617,-252861.94557828244,-236509.9611635476,-222386.18866061277,-205263.97053073902,-182495.3702042561,-157234.29349729666,-139429.09891044322,-122135.01958288568,-102449.71140477138,-79661.17098265806,-46830.23119269059,0.0,0.0,0.0,0.0,-304.99064221204236,0.0,0.0,0.0,-49874.453560637594,-80378.4812246979,-99089.81887532522,-109111.07853502211,-112263.52699566328,-109719.6945507581,-102410.16533345537,-90964.99846327545,-75527.4241758297,-55913.46536081275,-31933.617669431987,0.0,-16294.615609122171,-12006.509520048025,0.0,-53.380211215941706,-104.94619979851167,-144.74395985744556,-172.2834365618778,-189.04410105939053,-196.79125327902375,-197.2552269794843,-192.02534818095478,-182.50137353108636,-169.8814491724929,-155.1718302131304,-139.20593145336704,-122.66518032928755,-106.09831011175046,-89.93841034511689,-74.51853814456427,-60.086844178177564,-46.819774625768645,-34.82555133480314,-24.12391746772583,-14.612206391570728,-6.196575914641164,0.0,0.0,-1.4790687736402384,-2.3469532882944484,-2.61915974376718,-2.454457562782306,-2.0232401627937824,-1.4825683161162797,-0.9640716560688272,-0.5629568906581086,-0.3076968497880681,-0.1373561222179881,0.0,0.0,-0.001551872824133419,-0.002511554450927884,-0.0030893786988937916,-0.0035537635839799136,-0.00426847774370183,-0.005975375868795907,-0.010890485032620889,-0.02747123639509217,-0.08197813492020714,-0.2756926897874682,0.0,-32.55905026838448,-120.6911923199554,0.0,0.0,-13938.156207211616,-23124.920080569427,-30484.240024563536,-37518.0603819469,-44836.90140008958,-52716.836635832995,-61310.83273231727,-70697.85955695514,-80885.81372750226,-91812.04073302698,-103360.19175031006,-115381.11292280094,-127707.9299955599,-140162.77790167168
-2651.7795444039884,-2622.783000771122,-2691.9947399497064,-2805.223919143911,-2566.9229512142024,0.0,0.0,-22482.278446484182,-27343.39773742732,-33564.09624307328,-44112.269055299745,-58759.82779509699,-73345.71023590586,-80288.03621402611,-61605.64686138983,0.0,0.0,0.0,-50820.10704389246,-80214.29544067413,-116114.7192895438,-148889.91137610775,-182727.12336242673,-222809.7770842324,-266157.0433606168,-311910.4584498146,-356351.3130662551,-396894.5017396472,-432570.22679820453,-462127.4372955668,-484009.26369755814,-496333.4380733136,-500673.64255168405,-500762.79999843665,-498732.6700612385,-495214.83338321355,-488747.128115638,-479553.13648782164,-468343.28088622214,-456997.909566244,-445966.4841790706,-435422.30342342745,-425852.8038641489,-417514.24695837585,-410606.94692189386,-405515.8093930687,-402901.01365562424,-403484.21997561166,-407934.02270257985,-416897.2910398427,-431089.3623682065,-451239.5610856818,-477025.1813159922,-500432.1825283548,-535452.7977571989,-541144.7281342247,-497086.6107941167,-463345.43092685594,-436380.10891546926,-414102.8038614621,-394958.31785794644,-377784.8494897409,-361896.91104508744,-346982.88231567154,-332676.8922788348,-318167.80690109247,-302987.8293694064,-287402.78298465285,-271617.1631694714,-254110.80467676342,-234208.94396679103,-213388.65377139833,-194357.29307355607,-175612.67429279396,-155658.35583596973,-133484.1950897516,-107660.05173934168,-80418.44416399364,-64549.16672048535,-45142.36378222179,0.0,0.0,0.0,-59655.887623106486,-89020.17549186322,-119119.54855526649,-138137.6659534704,-149599.38246496086,-153943.77074767993,-152476.87331199713,-145992.18879915937,-135662.02934857312,-122647.5613416438,-107452.85654765222,-90269.92403808638,-71821.05136017015,-54546.731771998784,-48796.18927341575,-31731.436468763884,0.0,0.0,-48.07575236671635,-87.35681146850845,-117.0482158498883,-137.6721449295735,-150.12936973721088,-155.64850711241013,-155.5399796284148,-151.03352120831877,-143.21425033699668,-133.01125694277727,-121.20675408254091,-108.45096329603219,-95.27723881723132,-82.11598856724524,-69.30741388702738,-57.11318291162581,-45.72624407795559,-35.27700736814233,-25.837222441203416,-17.44027550368755,-10.174098146768936,-4.366286035414203,0.0,0.0,-1.0911992857887698,-1.5363258898014294,-1.6000719552015594,-1.429269447287297,-1.138544030603085,-0.8203730266507856,-0.5391035691662026,-0.31999771734695226,-0.148473300764253,0.0,-0.00034700456119175966,-0.0010707490544588042,-0.0016735401418479703,-0.002073506220338774,-0.002310027457170719,-0.0023934824434018467,-0.0020922145780494384,0.0,0.0,0.0,-1.0207926302098074,0.0,0.0,-450.2057191485801,-1680.131684776956,0.0,-23553.17709584997,-28148.841918353704,-31359.20535559248,-35568.97011680467,-40847.61681939063,-47094.739608814474,-54285.5211780437,-62404.4456285602,-71377.87576223357,-81038.28024689072,-91152.14658300878,-101451.22931856262,-111639.64966149798,-121371.32876692858
