22.892045454545457,20.54752066115703,20.54752066115703,20.54752066115703,22.892045454545457,20.54752066115703,22.892045454545457,22.892045454545457,22.892045454545457,22.892045454545457,22.892045454545457,20.54752066115703,20.54752066115703,20.54752066115703,22.892045454545457,20.54752066115703,20.54752066115703,20.54752066115703,20.54752066115703,20.54752066115703,20.54752066115703,25.757575757575758,25.757575757575758,25.757575757575758,25.757575757575758,25.757575757575758,22.892045454545457,22.892045454545457,18.59375,16.94055944055944,18.59375,18.59375,18.59375,22.892045454545457,22.892045454545457,22.892045454545457,20.54752066115703,20.54752066115703,20.54752066115703,255.0,20.54752066115703,126.05113636363637,61.576704545454554,48.68181818181819,20.54752066115703,18.59375,22.892045454545457,18.59375,18.59375,18.59375,18.59375,20.54752066115703,20.54752066115703,20.54752066115703,20.54752066115703,22.892045454545457,25.757575757575758,25.757575757575758,20.54752066115703,20.54752066115703,20.54752066115703,20.54752066115703,20.54752066115703,3.7150349650349654,22.892045454545457,9.383116883116886,9.383116883116886,20.54752066115703,20.54752066115703,20.54752066115703,22.892045454545457,22.892045454545457,22.892045454545457,22.892045454545457,20.54752066115703,22.892045454545457,22.892045454545457,22.892045454545457,22.892045454545457,22.892045454545457,20.54752066115703,20.54752066115703,20.54752066115703,20.54752066115703,22.892045454545457,22.892045454545457,22.892045454545457,22.892045454545457,20.54752066115703,20.54752066115703,20.54752066115703,22.892045454545457,22.892045454545457,22.892045454545457,20.54752066115703,22.892045454545457,22.892045454545457,22.892045454545457,22.892045454545457,22.892045454545457,22.892045454545457,22.892045454545457,25.757575757575758,25.757575757575758,22.892045454545457,25.757575757575758,22.892045454545457,20.54752066115703,20.54752066115703,20.54752066115703,20.54752066115703,20.54752066115703,20.54752066115703,20.54752066115703,20.54752066115703,20.54752066115703,20.54752066115703,20.54752066115703,20.54752066115703,20.54752066115703,20.54752066115703,20.54752066115703,20.54752066115703,20.54752066115703,20.54752066115703,20.54752066115703,20.54752066115703,20.54752066115703,20.54752066115703,20.54752066115703,20.54752066115703,20.54752066115703,20.54752066115703,20.54752066115703,18.59375,18.59375,18.59375,18.59375,18.59375,18.59375,18.59375,18.59375,18.59375,18.59375,18.59375,18.59375,18.59375,18.59375,18.59375,18.59375,18.59375,18.59375,18.59375,18.59375,18.59375,18.59375,18.59375,18.59375,18.59375,18.59375,18.59375,18.59375,18.59375,18.59375,18.59375,18.59375,18.59375,18.59375,18.59375,18.59375,18.59375,18.59375,18.59375,18.59375,18.59375,18.59375,18.59375,18.59375,18.59375
22.892045454545457,22.892045454545457,20.54752066115703,22.892045454545457,22.892045454545457,22.892045454545457,22.892045454545457,22.892045454545457,22.892045454545457,22.892045454545457,22.892045454545457,20.54752066115703,20.54752066115703,20.54752066115703,20.54752066115703,20.54752066115703,20.54752066115703,20.54752066115703,20.54752066115703,20.54752066115703,22.892045454545457,25.757575757575758,25.757575757575758,25.757575757575758,25.757575757575758,25.757575757575758,25.757575757575758,16.94055944055944,25.757575757575758,16.94055944055944,16.94055944055944,16.94055944055944,20.54752066115703,22.892045454545457,22.892045454545457,20.54752066115703,20.54752066115703,18.59375,20.54752066115703,20.54752066115703,20.54752066115703,126.05113636363637,61.576704545454554,33.94480519480519,29.339488636363637,22.892045454545457,22.892045454545457,20.54752066115703,18.59375,18.59375,16.94055944055944,16.94055944055944,20.54752066115703,20.54752066115703,22.892045454545457,22.892045454545457,22.892045454545457,22.892045454545457,22.892045454545457,20.54752066115703,22.892045454545457,20.54752066115703,20.54752066115703,18.59375,22.892045454545457,20.54752066115703,9.383116883116886,20.54752066115703,20.54752066115703,20.54752066115703,22.892045454545457,22.892045454545457,22.892045454545457,22.892045454545457,22.892045454545457,22.892045454545457,22.892045454545457,22.892045454545457,22.892045454545457,22.892045454545457,20.54752066115703,22.892045454545457,20.54752066115703,22.892045454545457,22.892045454545457,22.892045454545457,22.892045454545457,20.54752066115703,20.54752066115703,20.54752066115703,20.54752066115703,20.54752066115703,22.892045454545457,20.54752066115703,20.54752066115703,20.54752066115703,22.892045454545457,22.892045454545457,22.892045454545457,22.892045454545457,22.892045454545457,22.892045454545457,22.892045454545457,22.892045454545457,22.892045454545457,20.54752066115703,20.54752066115703,20.54752066115703,20.54752066115703,20.54752066115703,20.54752066115703,20.54752066115703,20.54752066115703,20.54752066115703,20.54752066115703,20.54752066115703,20.54752066115703,20.54752066115703,20.54752066115703,20.54752066115703,20.54752066115703,20.54752066115703,20.54752066115703,20.54752066115703,20.54752066115703,20.54752066115703,20.54752066115703,20.54752066115703,20.54752066115703,20.54752066115703,18.59375,18.59375,18.59375,18.59375,18.59375,18.59375,18.59375,18.59375,18.59375,18.59375,18.59375,18.59375,18.59375,18.59375,18.59375,18.59375,18.59375,18.59375,18.59375,18.59375,18.59375,18.59375,18.59375,18.59375,18.59375,18.59375,18.59375,18.59375,18.59375,18.59375,18.59375,18.59375,18.59375,18.59375,18.59375,18.59375,18.59375,18.59375,18.59375,18.59375,18.59375,18.59375,18.59375,18.59375,18.59375,18.59375,18.59375,18.59375,18.59375
22.892045454545457,22.892045454545457,20.54752066115703,22.892045454545457,22.892045454545457,22.892045454545457,25.757575757575758,22.892045454545457,22.892045454545457,22.892045454545457,25.757575757575758,22.892045454545457,22.892045454545457,22.892045454545457,20.54752066115703,20.54752066115703,20.54752066115703,20.54752066115703,20.54752066115703,20.54752066115703,22.892045454545457,25.757575757575758,25.757575757575758,25.757575757575758,25.757575757575758,25.757575757575758,25.757575757575758,33.94480519480519,25.757575757575758,25.757575757575758,25.757575757575758,22.892045454545457,22.892045454545457,22.892045454545457,20.54752066115703,18.59375,20.54752066115703,18.59375,20.54752066115703,20.54752066115703,20.54752066115703,255.0,20.54752066115703,20.54752066115703,20.54752066115703,22.892045454545457,20.54752066115703,20.54752066115703,20.54752066115703,20.54752066115703,20.54752066115703,20.54752066115703,20.54752066115703,20.54752066115703,22.892045454545457,22.892045454545457,22.892045454545457,22.892045454545457,20.54752066115703,20.54752066115703,20.54752066115703,20.54752066115703,20.54752066115703,18.59375,22.892045454545457,20.54752066115703,20.54752066115703,20.54752066115703,20.54752066115703,20.54752066115703,22.892045454545457,22.892045454545457,22.892045454545457,22.892045454545457,22.892045454545457,22.892045454545457,22.892045454545457,22.892045454545457,22.892045454545457,22.892045454545457,20.54752066115703,22.892045454545457,20.54752066115703,20.54752066115703,22.892045454545457,22.892045454545457,22.892045454545457,22.892045454545457,22.892045454545457,20.54752066115703,20.54752066115703,20.54752066115703,22.892045454545457,20.54752066115703,20.54752066115703,20.54752066115703,18.59375,22.892045454545457,22.892045454545457,22.892045454545457,22.892045454545457,22.892045454545457,22.892045454545457,20.54752066115703,20.54752066115703,20.54752066115703,20.54752066115703,20.54752066115703,20.54752066115703,20.54752066115703,20.54752066115703,20.54752066115703,20.54752066115703,20.54752066115703,20.54752066115703,20.54752066115703,20.54752066115703,20.54752066115703,20.54752066115703,20.54752066115703,20.54752066115703,20.54752066115703,20.54752066115703,20.54752066115703,20.54752066115703,20.54752066115703,20.54752066115703,18.59375,18.59375,18.59375,18.59375,18.59375,18.59375,18.59375,18.59375,18.59375,18.59375,18.59375,18.59375,18.59375,18.59375,18.59375,18.59375,18.59375,18.59375,18.59375,18.59375,18.59375,18.59375,18.59375,18.59375,18.59375,18.59375,18.59375,18.59375,18.59375,18.59375,18.59375,18.59375,18.59375,18.59375,18.59375,18.59375,18.59375,18.59375,18.59375,18.59375,18.59375,18.59375,18.59375,18.59375,18.59375,18.59375,18.59375,18.59375,18.59375,18.59375,18.59375,18.59375
22.892045454545457,20.54752066115703,20.54752066115703,22.892045454545457,22.892045454545457,20.54752066115703,25.757575757575758,20.54752066115703,20.54752066115703,25.757575757575758,25.757575757575758,25.757575757575758,22.892045454545457,22.892045454545457,20.54752066115703,20.54752066115703,20.54752066115703,20.54752066115703,20.54752066115703,22.892045454545457,22.892045454545457,22.892045454545457,25.757575757575758,20.54752066115703,20.54752066115703,25.757575757575758,16.94055944055944,16.94055944055944,25.757575757575758,25.757575757575758,22.892045454545457,22.892045454545457,25.757575757575758,22.892045454545457,20.54752066115703,18.59375,18.59375,22.892045454545457,22.892045454545457,22.892045454545457,20.54752066115703,255.0,255.0,20.54752066115703,20.54752066115703,22.892045454545457,20.54752066115703,20.54752066115703,20.54752066115703,9.997159090909092,18.59375,20.54752066115703,20.54752066115703,7.418181818181819,22.892045454545457,22.892045454545457,22.892045454545457,20.54752066115703,20.54752066115703,20.54752066115703,20.54752066115703,20.54752066115703,20.54752066115703,3.7150349650349654,22.892045454545457,20.54752066115703,16.94055944055944,20.54752066115703,20.54752066115703,20.54752066115703,22.892045454545457,22.892045454545457,22.892045454545457,22.892045454545457,22.892045454545457,22.892045454545457,22.892045454545457,22.892045454545457,22.892045454545457,22.892045454545457,22.892045454545457,22.892045454545457,20.54752066115703,20.54752066115703,22.892045454545457,22.892045454545457,25.757575757575758,25.757575757575758,25.757575757575758,22.892045454545457,20.54752066115703,20.54752066115703,22.892045454545457,20.54752066115703,20.54752066115703,20.54752066115703,18.59375,20.54752066115703,22.892045454545457,22.892045454545457,22.892045454545457,22.892045454545457,20.54752066115703,20.54752066115703,20.54752066115703,20.54752066115703,20.54752066115703,20.54752066115703,20.54752066115703,20.54752066115703,20.54752066115703,20.54752066115703,20.54752066115703,20.54752066115703,20.54752066115703,20.54752066115703,20.54752066115703,20.54752066115703,20.54752066115703,20.54752066115703,20.54752066115703,20.54752066115703,20.54752066115703,20.54752066115703,20.54752066115703,18.59375,18.59375,18.59375,18.59375,18.59375,18.59375,18.59375,18.59375,18.59375,18.59375,18.59375,18.59375,18.59375,18.59375,18.59375,18.59375,18.59375,18.59375,18.59375,18.59375,18.59375,18.59375,18.59375,18.59375,18.59375,18.59375,18.59375,18.59375,18.59375,18.59375,18.59375,18.59375,18.59375,18.59375,18.59375,18.59375,18.59375,18.59375,18.59375,18.59375,18.59375,18.59375,18.59375,18.59375,18.59375,18.59375,18.59375,18.59375,18.59375,18.59375,18.59375,18.59375,18.59375,18.59375
20.54752066115703,22.892045454545457,20.54752066115703,22.892045454545457,22.892045454545457,20.54752066115703,20.54752066115703,20.54752066115703,20.54752066115703,25.757575757575758,25.757575757575758,20.54752066115703,22.892045454545457,20.54752066115703,20.54752066115703,20.54752066115703,20.54752066115703,20.54752066115703,20.54752066115703,20.54752066115703,20.54752066115703,20.54752066115703,20.54752066115703,20.54752066115703,20.54752066115703,18.59375,16.94055944055944,15.52353896103896,25.757575757575758,25.757575757575758,22.892045454545457,22.892045454545457,20.54752066115703,20.54752066115703,18.59375,18.59375,18.59375,22.892045454545457,22.892045454545457,22.892045454545457,20.54752066115703,255.0,255.0,20.54752066115703,22.892045454545457,22.892045454545457,20.54752066115703,20.54752066115703,29.339488636363637,20.54752066115703,18.59375,18.59375,18.59375,18.59375,16.94055944055944,22.892045454545457,25.757575757575758,20.54752066115703,20.54752066115703,20.54752066115703,20.54752066115703,20.54752066115703,20.54752066115703,3.7150349650349654,22.892045454545457,16.94055944055944,16.94055944055944,20.54752066115703,20.54752066115703,20.54752066115703,22.892045454545457,22.892045454545457,22.892045454545457,22.892045454545457,22.892045454545457,22.892045454545457,22.892045454545457,22.892045454545457,22.892045454545457,22.892045454545457,22.892045454545457,22.892045454545457,20.54752066115703,20.54752066115703,22.892045454545457,22.892045454545457,22.892045454545457,25.757575757575758,22.892045454545457,22.892045454545457,20.54752066115703,22.892045454545457,22.892045454545457,20.54752066115703,20.54752066115703,20.54752066115703,22.892045454545457,22.892045454545457,22.892045454545457,22.892045454545457,22.892045454545457,22.892045454545457,20.54752066115703,20.54752066115703,20.54752066115703,20.54752066115703,20.54752066115703,20.54752066115703,20.54752066115703,20.54752066115703,20.54752066115703,20.54752066115703,20.54752066115703,20.54752066115703,20.54752066115703,20.54752066115703,20.54752066115703,20.54752066115703,20.54752066115703,20.54752066115703,20.54752066115703,18.59375,18.59375,18.59375,18.59375,18.59375,18.59375,18.59375,18.59375,18.59375,18.59375,18.59375,18.59375,18.59375,18.59375,18.59375,18.59375,18.59375,18.59375,18.59375,18.59375,18.59375,18.59375,18.59375,18.59375,18.59375,18.59375,18.59375,18.59375,18.59375,18.59375,18.59375,18.59375,18.59375,18.59375,18.59375,18.59375,18.59375,18.59375,18.59375,18.59375,18.59375,18.59375,18.59375,18.59375,18.59375,18.59375,18.59375,18.59375,18.59375,18.59375,18.59375,18.59375,18.59375,18.59375,18.59375,18.59375,18.59375,18.59375
20.54752066115703,22.892045454545457,20.54752066115703,20.54752066115703,20.54752066115703,20.54752066115703,20.54752066115703,20.54752066115703,20.54752066115703,20.54752066115703,22.892045454545457,20.54752066115703,20.54752066115703,20.54752066115703,20.54752066115703,20.54752066115703,20.54752066115703,18.59375,20.54752066115703,22.892045454545457,22.892045454545457,20.54752066115703,20.54752066115703,20.54752066115703,16.94055944055944,16.94055944055944,16.94055944055944,16.94055944055944,16.94055944055944,22.892045454545457,22.892045454545457,20.54752066115703,20.54752066115703,20.54752066115703,18.59375,18.59375,18.59375,18.59375,18.59375,22.892045454545457,22.892045454545457,22.892045454545457,22.892045454545457,20.54752066115703,25.757575757575758,25.757575757575758,29.339488636363637,25.757575757575758,29.339488636363637,29.339488636363637,29.339488636363637,20.54752066115703,20.54752066115703,18.59375,20.54752066115703,20.54752066115703,20.54752066115703,20.54752066115703,20.54752066115703,20.54752066115703,20.54752066115703,20.54752066115703,20.54752066115703,20.54752066115703,20.54752066115703,18.59375,18.59375,20.54752066115703,20.54752066115703,20.54752066115703,20.54752066115703,22.892045454545457,22.892045454545457,22.892045454545457,22.892045454545457,22.892045454545457,22.892045454545457,22.892045454545457,22.892045454545457,22.892045454545457,22.892045454545457,22.892045454545457,20.54752066115703,20.54752066115703,20.54752066115703,20.54752066115703,20.54752066115703,22.892045454545457,22.892045454545457,20.54752066115703,20.54752066115703,20.54752066115703,20.54752066115703,20.54752066115703,20.54752066115703,20.54752066115703,22.892045454545457,20.54752066115703,20.54752066115703,20.54752066115703,22.892045454545457,20.54752066115703,20.54752066115703,20.54752066115703,20.54752066115703,20.54752066115703,20.54752066115703,20.54752066115703,20.54752066115703,20.54752066115703,20.54752066115703,20.54752066115703,20.54752066115703,20.54752066115703,20.54752066115703,20.54752066115703,20.54752066115703,20.54752066115703,20.54752066115703,18.59375,18.59375,18.59375,18.59375,18.59375,18.59375,18.59375,18.59375,18.59375,18.59375,18.59375,18.59375,18.59375,18.59375,18.59375,18.59375,18.59375,18.59375,18.59375,18.59375,18.59375,18.59375,18.59375,18.59375,18.59375,18.59375,18.59375,18.59375,18.59375,18.59375,18.59375,18.59375,18.59375,18.59375,18.59375,18.59375,18.59375,18.59375,18.59375,16.94055944055944,18.59375,18.59375,18.59375,18.59375,18.59375,18.59375,18.59375,18.59375,18.59375,18.59375,18.59375,18.59375,18.59375,16.94055944055944,18.59375,18.59375,18.59375,18.59375,18.59375,18.59375
20.54752066115703,20.54752066115703,20.54752066115703,20.54752066115703,20.54752066115703,20.54752066115703,20.54752066115703,20.54752066115703,20.54752066115703,25.757575757575758,22.892045454545457,22.892045454545457,22.892045454545457,20.54752066115703,20.54752066115703,20.54752066115703,20.54752066115703,22.892045454545457,22.892045454545457,20.54752066115703,20.54752066115703,20.54752066115703,20.54752066115703,20.54752066115703,20.54752066115703,18.59375,16.94055944055944,16.94055944055944,16.94055944055944,22.892045454545457,20.54752066115703,20.54752066115703,20.54752066115703,18.59375,18.59375,18.59375,18.59375,18.59375,22.892045454545457,22.892045454545457,22.892045454545457,22.892045454545457,22.892045454545457,25.757575757575758,25.757575757575758,25.757575757575758,29.339488636363637,29.339488636363637,29.339488636363637,29.339488636363637,29.339488636363637,20.54752066115703,20.54752066115703,18.59375,20.54752066115703,18.59375,18.59375,18.59375,20.54752066115703,20.54752066115703,20.54752066115703,20.54752066115703,20.54752066115703,20.54752066115703,20.54752066115703,18.59375,18.59375,18.59375,18.59375,20.54752066115703,20.54752066115703,22.892045454545457,22.892045454545457,22.892045454545457,22.892045454545457,22.892045454545457,22.892045454545457,22.892045454545457,22.892045454545457,22.892045454545457,22.892045454545457,22.892045454545457,20.54752066115703,20.54752066115703,20.54752066115703,20.54752066115703,20.54752066115703,20.54752066115703,20.54752066115703,18.59375,20.54752066115703,20.54752066115703,20.54752066115703,20.54752066115703,20.54752066115703,20.54752066115703,22.892045454545457,20.54752066115703,20.54752066115703,20.54752066115703,20.54752066115703,20.54752066115703,20.54752066115703,20.54752066115703,20.54752066115703,20.54752066115703,20.54752066115703,20.54752066115703,20.54752066115703,20.54752066115703,20.54752066115703,20.54752066115703,20.54752066115703,20.54752066115703,20.54752066115703,20.54752066115703,20.54752066115703,20.54752066115703,18.59375,18.59375,18.59375,18.59375,18.59375,18.59375,18.59375,18.59375,18.59375,18.59375,18.59375,18.59375,18.59375,18.59375,18.59375,18.59375,18.59375,18.59375,18.59375,18.59375,18.59375,18.59375,18.59375,18.59375,18.59375,18.59375,18.59375,18.59375,18.59375,18.59375,18.59375,18.59375,18.59375,18.59375,18.59375,18.59375,18.59375,18.59375,16.94055944055944,18.59375,18.59375,18.59375,18.59375,18.59375,18.59375,18.59375,18.59375,18.59375,18.59375,18.59375,16.94055944055944,16.94055944055944,16.94055944055944,16.94055944055944,16.94055944055944,16.94055944055944,18.59375,18.59375,18.59375,18.59375,18.59375
22.892045454545457,22.892045454545457,22.892045454545457,20.54752066115703,22.892045454545457,22.892045454545457,22.892045454545457,22.892045454545457,22.892045454545457,25.757575757575758,22.892045454545457,22.892045454545457,22.892045454545457,20.54752066115703,20.54752066115703,20.54752066115703,20.54752066115703,25.757575757575758,25.757575757575758,29.339488636363637,25.757575757575758,20.54752066115703,20.54752066115703,20.54752066115703,18.59375,16.94055944055944,16.94055944055944,16.94055944055944,29.339488636363637,29.339488636363637,25.757575757575758,25.757575757575758,25.757575757575758,20.54752066115703,18.59375,18.59375,20.54752066115703,20.54752066115703,20.54752066115703,25.757575757575758,22.892045454545457,22.892045454545457,22.892045454545457,22.892045454545457,22.892045454545457,25.757575757575758,25.757575757575758,25.757575757575758,25.757575757575758,83.06818181818181,40.08522727272728,20.54752066115703,20.54752066115703,20.54752066115703,20.54752066115703,20.54752066115703,20.54752066115703,20.54752066115703,20.54752066115703,20.54752066115703,20.54752066115703,20.54752066115703,20.54752066115703,20.54752066115703,3.2426948051948057,18.59375,16.94055944055944,20.54752066115703,18.59375,20.54752066115703,20.54752066115703,20.54752066115703,20.54752066115703,22.892045454545457,22.892045454545457,22.892045454545457,22.892045454545457,22.892045454545457,22.892045454545457,20.54752066115703,20.54752066115703,22.892045454545457,20.54752066115703,20.54752066115703,22.892045454545457,20.54752066115703,20.54752066115703,20.54752066115703,20.54752066115703,18.59375,20.54752066115703,20.54752066115703,20.54752066115703,22.892045454545457,20.54752066115703,22.892045454545457,22.892045454545457,22.892045454545457,22.892045454545457,20.54752066115703,20.54752066115703,20.54752066115703,20.54752066115703,20.54752066115703,20.54752066115703,20.54752066115703,20.54752066115703,20.54752066115703,20.54752066115703,20.54752066115703,20.54752066115703,20.54752066115703,20.54752066115703,20.54752066115703,20.54752066115703,20.54752066115703,20.54752066115703,18.59375,18.59375,18.59375,18.59375,18.59375,18.59375,18.59375,18.59375,18.59375,18.59375,18.59375,18.59375,18.59375,18.59375,18.59375,18.59375,18.59375,18.59375,18.59375,18.59375,18.59375,18.59375,18.59375,18.59375,18.59375,18.59375,18.59375,18.59375,18.59375,18.59375,18.59375,18.59375,18.59375,18.59375,18.59375,18.59375,18.59375,18.59375,18.59375,16.94055944055944,18.59375,18.59375,18.59375,18.59375,18.59375,18.59375,18.59375,18.59375,18.59375,18.59375,18.59375,16.94055944055944,16.94055944055944,16.94055944055944,16.94055944055944,16.94055944055944,16.94055944055944,16.94055944055944,16.94055944055944,16.94055944055944,18.59375,18.59375
22.892045454545457,22.892045454545457,22.892045454545457,20.54752066115703,22.892045454545457,22.892045454545457,22.892045454545457,22.892045454545457,22.892045454545457,22.892045454545457,22.892045454545457,25.757575757575758,20.54752066115703,20.54752066115703,20.54752066115703,20.54752066115703,29.339488636363637,25.757575757575758,25.757575757575758,29.339488636363637,25.757575757575758,25.757575757575758,20.54752066115703,33.94480519480519,33.94480519480519,33.94480519480519,16.94055944055944,16.94055944055944,16.94055944055944,25.757575757575758,25.757575757575758,33.94480519480519,33.94480519480519,33.94480519480519,18.59375,20.54752066115703,20.54752066115703,20.54752066115703,20.54752066115703,22.892045454545457,29.339488636363637,29.339488636363637,29.339488636363637,25.757575757575758,25.757575757575758,25.757575757575758,25.757575757575758,22.892045454545457,29.339488636363637,25.757575757575758,13.220880681818183,14.295454545454547,14.295454545454547,20.54752066115703,20.54752066115703,20.54752066115703,20.54752066115703,20.54752066115703,20.54752066115703,18.59375,18.59375,18.59375,18.59375,18.59375,18.59375,18.59375,18.59375,20.54752066115703,18.59375,20.54752066115703,20.54752066115703,20.54752066115703,20.54752066115703,22.892045454545457,20.54752066115703,22.892045454545457,20.54752066115703,22.892045454545457,22.892045454545457,20.54752066115703,20.54752066115703,22.892045454545457,20.54752066115703,20.54752066115703,20.54752066115703,20.54752066115703,20.54752066115703,20.54752066115703,18.59375,18.59375,18.59375,18.59375,22.892045454545457,22.892045454545457,22.892045454545457,22.892045454545457,22.892045454545457,22.892045454545457,20.54752066115703,20.54752066115703,20.54752066115703,20.54752066115703,20.54752066115703,20.54752066115703,20.54752066115703,20.54752066115703,20.54752066115703,20.54752066115703,20.54752066115703,20.54752066115703,20.54752066115703,20.54752066115703,20.54752066115703,20.54752066115703,20.54752066115703,20.54752066115703,18.59375,18.59375,18.59375,18.59375,18.59375,18.59375,18.59375,18.59375,18.59375,18.59375,18.59375,18.59375,18.59375,18.59375,18.59375,18.59375,18.59375,18.59375,18.59375,18.59375,18.59375,18.59375,18.59375,18.59375,18.59375,18.59375,18.59375,18.59375,18.59375,18.59375,18.59375,18.59375,18.59375,18.59375,18.59375,18.59375,18.59375,18.59375,18.59375,18.59375,18.59375,18.59375,18.59375,18.59375,18.59375,16.94055944055944,16.94055944055944,18.59375,18.59375,18.59375,18.59375,18.59375,16.94055944055944,16.94055944055944,16.94055944055944,16.94055944055944,16.94055944055944,16.94055944055944,16.94055944055944,16.94055944055944,16.94055944055944,16.94055944055944,16.94055944055944
22.892045454545457,25.757575757575758,22.892045454545457,22.892045454545457,22.892045454545457,22.892045454545457,22.892045454545457,22.892045454545457,22.892045454545457,22.892045454545457,22.892045454545457,22.892045454545457,20.54752066115703,20.54752066115703,25.757575757575758,22.892045454545457,20.54752066115703,25.757575757575758,25.757575757575758,29.339488636363637,29.339488636363637,25.757575757575758,25.757575757575758,33.94480519480519,29.339488636363637,33.94480519480519,29.339488636363637,16.94055944055944,29.339488636363637,33.94480519480519,33.94480519480519,33.94480519480519,33.94480519480519,33.94480519480519,20.54752066115703,20.54752066115703,20.54752066115703,20.54752066115703,20.54752066115703,20.54752066115703,29.339488636363637,29.339488636363637,25.757575757575758,25.757575757575758,25.757575757575758,25.757575757575758,22.892045454545457,22.892045454545457,22.892045454545457,14.295454545454547,14.295454545454547,14.295454545454547,20.54752066115703,40.08522727272728,40.08522727272728,18.59375,20.54752066115703,25.757575757575758,25.757575757575758,20.54752066115703,20.54752066115703,18.59375,18.59375,18.59375,18.59375,18.59375,16.94055944055944,2.0618444055944054,16.94055944055944,20.54752066115703,20.54752066115703,20.54752066115703,20.54752066115703,20.54752066115703,20.54752066115703,20.54752066115703,20.54752066115703,22.892045454545457,20.54752066115703,20.54752066115703,20.54752066115703,20.54752066115703,20.54752066115703,20.54752066115703,20.54752066115703,20.54752066115703,20.54752066115703,18.59375,18.59375,18.59375,18.59375,18.59375,18.59375,22.892045454545457,22.892045454545457,22.892045454545457,22.892045454545457,22.892045454545457,20.54752066115703,16.94055944055944,20.54752066115703,20.54752066115703,20.54752066115703,20.54752066115703,20.54752066115703,20.54752066115703,20.54752066115703,20.54752066115703,20.54752066115703,20.54752066115703,20.54752066115703,20.54752066115703,20.54752066115703,20.54752066115703,20.54752066115703,20.54752066115703,18.59375,18.59375,18.59375,18.59375,18.59375,18.59375,18.59375,18.59375,18.59375,18.59375,18.59375,18.59375,18.59375,18.59375,18.59375,18.59375,18.59375,18.59375,18.59375,18.59375,18.59375,18.59375,18.59375,18.59375,18.59375,18.59375,18.59375,18.59375,18.59375,18.59375,18.59375,18.59375,18.59375,18.59375,18.59375,18.59375,18.59375,18.59375,18.59375,18.59375,18.59375,18.59375,16.94055944055944,18.59375,16.94055944055944,16.94055944055944,18.59375,18.59375,18.59375,18.59375,18.59375,18.59375,16.94055944055944,16.94055944055944,16.94055944055944,16.94055944055944,16.94055944055944,16.94055944055944,16.94055944055944,16.94055944055944,16.94055944055944,16.94055944055944,16.94055944055944
22.892045454545457,25.757575757575758,25.757575757575758,25.757575757575758,25.757575757575758,25.757575757575758,22.892045454545457,22.892045454545457,22.892045454545457,22.892045454545457,22.892045454545457,22.892045454545457,20.54752066115703,20.54752066115703,22.892045454545457,25.757575757575758,22.892045454545457,25.757575757575758,25.757575757575758,33.94480519480519,29.339488636363637,33.94480519480519,33.94480519480519,33.94480519480519,29.339488636363637,33.94480519480519,18.59375,18.59375,22.892045454545457,40.08522727272728,40.08522727272728,33.94480519480519,33.94480519480519,33.94480519480519,22.892045454545457,20.54752066115703,20.54752066115703,20.54752066115703,20.54752066115703,18.59375,29.339488636363637,29.339488636363637,25.757575757575758,11.429924242424244,11.429924242424244,11.429924242424244,22.892045454545457,22.892045454545457,22.892045454545457,13.220880681818183,14.295454545454547,14.295454545454547,8.824896694214878,20.54752066115703,40.08522727272728,25.757575757575758,25.757575757575758,25.757575757575758,25.757575757575758,18.59375,18.59375,18.59375,18.59375,18.59375,18.59375,2.3654916512059367,2.260227272727273,2.260227272727273,16.94055944055944,22.892045454545457,20.54752066115703,20.54752066115703,20.54752066115703,20.54752066115703,20.54752066115703,20.54752066115703,20.54752066115703,20.54752066115703,20.54752066115703,20.54752066115703,20.54752066115703,20.54752066115703,20.54752066115703,20.54752066115703,20.54752066115703,20.54752066115703,18.59375,18.59375,18.59375,18.59375,18.59375,18.59375,22.892045454545457,22.892045454545457,22.892045454545457,22.892045454545457,22.892045454545457,22.892045454545457,20.54752066115703,20.54752066115703,20.54752066115703,20.54752066115703,20.54752066115703,20.54752066115703,20.54752066115703,20.54752066115703,20.54752066115703,20.54752066115703,20.54752066115703,20.54752066115703,20.54752066115703,20.54752066115703,20.54752066115703,20.54752066115703,20.54752066115703,20.54752066115703,18.59375,18.59375,18.59375,18.59375,18.59375,18.59375,18.59375,18.59375,18.59375,18.59375,18.59375,18.59375,18.59375,18.59375,18.59375,18.59375,18.59375,18.59375,18.59375,18.59375,18.59375,18.59375,18.59375,18.59375,18.59375,18.59375,18.59375,18.59375,18.59375,18.59375,18.59375,18.59375,18.59375,18.59375,18.59375,18.59375,18.59375,18.59375,18.59375,18.59375,18.59375,18.59375,16.94055944055944,18.59375,18.59375,18.59375,18.59375,18.59375,18.59375,18.59375,18.59375,18.59375,16.94055944055944,16.94055944055944,16.94055944055944,16.94055944055944,16.94055944055944,16.94055944055944,16.94055944055944,16.94055944055944,16.94055944055944,16.94055944055944,16.94055944055944
22.892045454545457,22.892045454545457,22.892045454545457,22.892045454545457,25.757575757575758,25.757575757575758,22.892045454545457,22.892045454545457,22.892045454545457,22.892045454545457,22.892045454545457,20.54752066115703,20.54752066115703,20.54752066115703,20.54752066115703,20.54752066115703,22.892045454545457,25.757575757575758,25.757575757575758,20.54752066115703,20.54752066115703,20.54752066115703,20.54752066115703,33.94480519480519,33.94480519480519,33.94480519480519,18.59375,29.339488636363637,18.59375,40.08522727272728,40.08522727272728,40.08522727272728,40.08522727272728,33.94480519480519,126.05113636363637,20.54752066115703,20.54752066115703,20.54752066115703,20.54752066115703,20.54752066115703,20.54752066115703,22.892045454545457,22.892045454545457,22.892045454545457,11.429924242424244,11.429924242424244,22.892045454545457,22.892045454545457,13.220880681818183,61.576704545454554,61.576704545454554,9.383116883116886,8.824896694214878,7.021416083916084,29.339488636363637,29.339488636363637,25.757575757575758,25.757575757575758,25.757575757575758,18.59375,18.59375,18.59375,18.59375,18.59375,18.59375,2.3654916512059367,2.3654916512059367,2.260227272727273,16.94055944055944,22.892045454545457,20.54752066115703,20.54752066115703,20.54752066115703,20.54752066115703,20.54752066115703,20.54752066115703,20.54752066115703,20.54752066115703,20.54752066115703,20.54752066115703,20.54752066115703,20.54752066115703,18.59375,18.59375,20.54752066115703,18.59375,18.59375,18.59375,18.59375,22.892045454545457,22.892045454545457,18.59375,22.892045454545457,22.892045454545457,22.892045454545457,22.892045454545457,22.892045454545457,22.892045454545457,20.54752066115703,20.54752066115703,20.54752066115703,20.54752066115703,20.54752066115703,20.54752066115703,20.54752066115703,20.54752066115703,20.54752066115703,20.54752066115703,20.54752066115703,20.54752066115703,20.54752066115703,20.54752066115703,20.54752066115703,20.54752066115703,20.54752066115703,20.54752066115703,18.59375,18.59375,18.59375,18.59375,18.59375,18.59375,18.59375,18.59375,18.59375,18.59375,18.59375,18.59375,18.59375,18.59375,18.59375,18.59375,18.59375,18.59375,18.59375,18.59375,18.59375,18.59375,18.59375,18.59375,18.59375,18.59375,18.59375,18.59375,18.59375,18.59375,18.59375,18.59375,18.59375,18.59375,18.59375,18.59375,18.59375,18.59375,18.59375,16.94055944055944,16.94055944055944,18.59375,16.94055944055944,18.59375,18.59375,18.59375,18.59375,18.59375,18.59375,18.59375,16.94055944055944,16.94055944055944,16.94055944055944,16.94055944055944,16.94055944055944,16.94055944055944,16.94055944055944,16.94055944055944,16.94055944055944,16.94055944055944,16.94055944055944,16.94055944055944,16.94055944055944
22.892045454545457,22.892045454545457,22.892045454545457,22.892045454545457,25.757575757575758,25.757575757575758,22.892045454545457,22.892045454545457,22.892045454545457,22.892045454545457,22.892045454545457,20.54752066115703,20.54752066115703,20.54752066115703,20.54752066115703,20.54752066115703,20.54752066115703,20.54752066115703,20.54752066115703,20.54752066115703,20.54752066115703,20.54752066115703,20.54752066115703,18.59375,20.54752066115703,18.59375,18.59375,18.59375,20.54752066115703,25.757575757575758,40.08522727272728,40.08522727272728,40.08522727272728,40.08522727272728,33.94480519480519,29.339488636363637,29.339488636363637,20.54752066115703,18.59375,22.892045454545457,16.94055944055944,22.892045454545457,20.54752066115703,16.94055944055944,11.429924242424244,11.429924242424244,11.429924242424244,14.295454545454547,13.220880681818183,255.0,255.0,9.383116883116886,7.021416083916084,7.021416083916084,5.421554252199415,5.421554252199415,5.421554252199415,16.94055944055944,20.54752066115703,7.021416083916084,13.220880681818183,20.54752066115703,20.54752066115703,3.2426948051948057,20.54752066115703,20.54752066115703,20.54752066115703,18.59375,25.757575757575758,22.892045454545457,22.892045454545457,22.892045454545457,20.54752066115703,20.54752066115703,20.54752066115703,20.54752066115703,20.54752066115703,20.54752066115703,20.54752066115703,20.54752066115703,20.54752066115703,25.757575757575758,25.757575757575758,25.757575757575758,25.757575757575758,22.892045454545457,22.892045454545457,40.08522727272728,33.94480519480519,33.94480519480519,25.757575757575758,22.892045454545457,22.892045454545457,22.892045454545457,22.892045454545457,22.892045454545457,16.94055944055944,20.54752066115703,16.94055944055944,20.54752066115703,20.54752066115703,20.54752066115703,20.54752066115703,20.54752066115703,20.54752066115703,20.54752066115703,20.54752066115703,20.54752066115703,20.54752066115703,20.54752066115703,18.59375,18.59375,20.54752066115703,20.54752066115703,18.59375,18.59375,18.59375,18.59375,18.59375,18.59375,18.59375,18.59375,18.59375,18.59375,18.59375,18.59375,18.59375,18.59375,18.59375,18.59375,18.59375,18.59375,18.59375,18.59375,18.59375,18.59375,18.59375,18.59375,18.59375,18.59375,18.59375,18.59375,18.59375,18.59375,18.59375,18.59375,18.59375,18.59375,16.94055944055944,16.94055944055944,18.59375,18.59375,18.59375,18.59375,18.59375,16.94055944055944,16.94055944055944,16.94055944055944,16.94055944055944,16.94055944055944,18.59375,18.59375,18.59375,18.59375,18.59375,18.59375,16.94055944055944,16.94055944055944,16.94055944055944,16.94055944055944,16.94055944055944,16.94055944055944,16.94055944055944,16.94055944055944,16.94055944055944,16.94055944055944,16.94055944055944,16.94055944055944,16.94055944055944
22.892045454545457,22.892045454545457,22.892045454545457,22.892045454545457,25.757575757575758,25.757575757575758,25.757575757575758,22.892045454545457,22.892045454545457,22.892045454545457,22.892045454545457,20.54752066115703,20.54752066115703,20.54752066115703,20.54752066115703,20.54752066115703,20.54752066115703,20.54752066115703,20.54752066115703,20.54752066115703,20.54752066115703,22.892045454545457,22.892045454545457,22.892045454545457,20.54752066115703,18.59375,18.59375,18.59375,25.757575757575758,25.757575757575758,22.892045454545457,22.892045454545457,40.08522727272728,40.08522727272728,40.08522727272728,40.08522727272728,20.54752066115703,20.54752066115703,18.59375,20.54752066115703,20.54752066115703,20.54752066115703,20.54752066115703,61.576704545454554,255.0,25.757575757575758,8.31521739130435,14.295454545454547,12.272727272727273,12.272727272727273,12.272727272727273,9.383116883116886,9.997159090909092,5.421554252199415,5.421554252199415,5.421554252199415,25.757575757575758,25.757575757575758,25.757575757575758,25.757575757575758,20.54752066115703,20.54752066115703,20.54752066115703,3.2426948051948057,20.54752066115703,20.54752066115703,20.54752066115703,18.59375,20.54752066115703,22.892045454545457,22.892045454545457,22.892045454545457,20.54752066115703,20.54752066115703,20.54752066115703,20.54752066115703,20.54752066115703,20.54752066115703,20.54752066115703,20.54752066115703,20.54752066115703,25.757575757575758,25.757575757575758,25.757575757575758,25.757575757575758,22.892045454545457,40.08522727272728,40.08522727272728,33.94480519480519,33.94480519480519,33.94480519480519,29.339488636363637,29.339488636363637,22.892045454545457,22.892045454545457,22.892045454545457,22.892045454545457,20.54752066115703,20.54752066115703,20.54752066115703,20.54752066115703,20.54752066115703,20.54752066115703,20.54752066115703,20.54752066115703,20.54752066115703,20.54752066115703,20.54752066115703,20.54752066115703,20.54752066115703,18.59375,18.59375,18.59375,18.59375,18.59375,18.59375,18.59375,18.59375,18.59375,18.59375,18.59375,18.59375,18.59375,18.59375,18.59375,18.59375,18.59375,18.59375,18.59375,18.59375,18.59375,18.59375,18.59375,18.59375,18.59375,18.59375,18.59375,18.59375,18.59375,18.59375,18.59375,18.59375,18.59375,18.59375,18.59375,18.59375,18.59375,16.94055944055944,16.94055944055944,16.94055944055944,18.59375,18.59375,18.59375,18.59375,18.59375,16.94055944055944,16.94055944055944,16.94055944055944,16.94055944055944,16.94055944055944,18.59375,18.59375,18.59375,18.59375,16.94055944055944,18.59375,16.94055944055944,16.94055944055944,16.94055944055944,16.94055944055944,16.94055944055944,16.94055944055944,16.94055944055944,16.94055944055944,16.94055944055944,16.94055944055944,16.94055944055944,16.94055944055944,16.94055944055944
22.892045454545457,22.892045454545457,22.892045454545457,22.892045454545457,22.892045454545457,22.892045454545457,22.892045454545457,22.892045454545457,22.892045454545457,22.892045454545457,22.892045454545457,20.54752066115703,20.54752066115703,20.54752066115703,20.54752066115703,20.54752066115703,20.54752066115703,20.54752066115703,20.54752066115703,20.54752066115703,20.54752066115703,20.54752066115703,20.54752066115703,22.892045454545457,22.892045454545457,22.892045454545457,20.54752066115703,25.757575757575758,25.757575757575758,25.757575757575758,22.892045454545457,40.08522727272728,40.08522727272728,40.08522727272728,40.08522727272728,40.08522727272728,18.59375,18.59375,18.59375,18.59375,20.54752066115703,20.54752066115703,20.54752066115703,20.54752066115703,255.0,10.675837320574164,25.757575757575758,22.892045454545457,20.54752066115703,20.54752066115703,20.54752066115703,20.54752066115703,20.54752066115703,29.339488636363637,29.339488636363637,25.757575757575758,25.757575757575758,25.757575757575758,20.54752066115703,20.54752066115703,20.54752066115703,20.54752066115703,20.54752066115703,20.54752066115703,20.54752066115703,20.54752066115703,20.54752066115703,18.59375,18.59375,18.59375,22.892045454545457,22.892045454545457,20.54752066115703,22.892045454545457,20.54752066115703,20.54752066115703,20.54752066115703,20.54752066115703,20.54752066115703,20.54752066115703,20.54752066115703,25.757575757575758,25.757575757575758,25.757575757575758,25.757575757575758,22.892045454545457,22.892045454545457,40.08522727272728,33.94480519480519,33.94480519480519,33.94480519480519,29.339488636363637,29.339488636363637,29.339488636363637,25.757575757575758,25.757575757575758,20.54752066115703,20.54752066115703,20.54752066115703,20.54752066115703,20.54752066115703,20.54752066115703,20.54752066115703,20.54752066115703,20.54752066115703,20.54752066115703,20.54752066115703,20.54752066115703,20.54752066115703,20.54752066115703,18.59375,18.59375,18.59375,18.59375,18.59375,18.59375,18.59375,18.59375,18.59375,18.59375,18.59375,18.59375,18.59375,18.59375,18.59375,18.59375,18.59375,18.59375,18.59375,18.59375,18.59375,18.59375,18.59375,18.59375,18.59375,18.59375,18.59375,18.59375,18.59375,18.59375,18.59375,18.59375,18.59375,18.59375,18.59375,18.59375,18.59375,16.94055944055944,16.94055944055944,16.94055944055944,16.94055944055944,16.94055944055944,16.94055944055944,16.94055944055944,16.94055944055944,16.94055944055944,16.94055944055944,16.94055944055944,16.94055944055944,16.94055944055944,18.59375,18.59375,18.59375,18.59375,16.94055944055944,18.59375,16.94055944055944,16.94055944055944,16.94055944055944,16.94055944055944,16.94055944055944,16.94055944055944,16.94055944055944,16.94055944055944,16.94055944055944,16.94055944055944,16.94055944055944,16.94055944055944,16.94055944055944
22.892045454545457,22.892045454545457,22.892045454545457,22.892045454545457,22.892045454545457,22.892045454545457,22.892045454545457,22.892045454545457,22.892045454545457,22.892045454545457,20.54752066115703,20.54752066115703,20.54752066115703,20.54752066115703,20.54752066115703,20.54752066115703,20.54752066115703,20.54752066115703,20.54752066115703,20.54752066115703,20.54752066115703,20.54752066115703,20.54752066115703,20.54752066115703,18.59375,18.59375,18.59375,25.757575757575758,25.757575757575758,25.757575757575758,22.892045454545457,22.892045454545457,22.892045454545457,20.54752066115703,40.08522727272728,40.08522727272728,22.892045454545457,20.54752066115703,22.892045454545457,20.54752066115703,20.54752066115703,20.54752066115703,20.54752066115703,12.272727272727273,61.576704545454554,61.576704545454554,48.68181818181819,29.339488636363637,20.54752066115703,11.429924242424244,7.848011363636364,7.848011363636364,10.675837320574164,25.757575757575758,25.757575757575758,25.757575757575758,25.757575757575758,22.892045454545457,20.54752066115703,20.54752066115703,20.54752066115703,20.54752066115703,20.54752066115703,20.54752066115703,20.54752066115703,20.54752066115703,20.54752066115703,18.59375,18.59375,18.59375,22.892045454545457,22.892045454545457,20.54752066115703,22.892045454545457,20.54752066115703,20.54752066115703,20.54752066115703,20.54752066115703,20.54752066115703,20.54752066115703,22.892045454545457,22.892045454545457,22.892045454545457,22.892045454545457,22.892045454545457,22.892045454545457,22.892045454545457,22.892045454545457,40.08522727272728,29.339488636363637,29.339488636363637,29.339488636363637,29.339488636363637,29.339488636363637,25.757575757575758,20.54752066115703,18.59375,18.59375,20.54752066115703,20.54752066115703,20.54752066115703,20.54752066115703,20.54752066115703,20.54752066115703,20.54752066115703,20.54752066115703,20.54752066115703,20.54752066115703,20.54752066115703,20.54752066115703,18.59375,18.59375,18.59375,18.59375,18.59375,18.59375,18.59375,18.59375,18.59375,18.59375,18.59375,18.59375,18.59375,18.59375,18.59375,18.59375,18.59375,18.59375,18.59375,18.59375,18.59375,18.59375,18.59375,18.59375,18.59375,18.59375,18.59375,18.59375,18.59375,16.94055944055944,16.94055944055944,16.94055944055944,16.94055944055944,16.94055944055944,18.59375,18.59375,18.59375,18.59375,18.59375,16.94055944055944,16.94055944055944,16.94055944055944,16.94055944055944,16.94055944055944,16.94055944055944,16.94055944055944,16.94055944055944,16.94055944055944,18.59375,16.94055944055944,16.94055944055944,16.94055944055944,16.94055944055944,16.94055944055944,16.94055944055944,18.59375,16.94055944055944,16.94055944055944,16.94055944055944,16.94055944055944,16.94055944055944,16.94055944055944,16.94055944055944,16.94055944055944,16.94055944055944,16.94055944055944,16.94055944055944,16.94055944055944,16.94055944055944
22.892045454545457,22.892045454545457,22.892045454545457,22.892045454545457,22.892045454545457,20.54752066115703,20.54752066115703,22.892045454545457,22.892045454545457,20.54752066115703,20.54752066115703,20.54752066115703,20.54752066115703,20.54752066115703,20.54752066115703,25.757575757575758,20.54752066115703,20.54752066115703,20.54752066115703,20.54752066115703,20.54752066115703,20.54752066115703,20.54752066115703,20.54752066115703,18.59375,18.59375,18.59375,25.757575757575758,25.757575757575758,25.757575757575758,22.892045454545457,22.892045454545457,22.892045454545457,20.54752066115703,48.68181818181819,40.08522727272728,22.892045454545457,22.892045454545457,22.892045454545457,20.54752066115703,20.54752066115703,20.54752066115703,20.54752066115703,15.52353896103896,61.576704545454554,10.675837320574164,9.997159090909092,33.94480519480519,20.54752066115703,7.848011363636364,7.848011363636364,7.848011363636364,20.54752066115703,25.757575757575758,25.757575757575758,25.757575757575758,22.892045454545457,22.892045454545457,20.54752066115703,20.54752066115703,20.54752066115703,20.54752066115703,20.54752066115703,20.54752066115703,20.54752066115703,20.54752066115703,20.54752066115703,18.59375,20.54752066115703,18.59375,22.892045454545457,22.892045454545457,22.892045454545457,22.892045454545457,20.54752066115703,20.54752066115703,20.54752066115703,20.54752066115703,22.892045454545457,22.892045454545457,22.892045454545457,22.892045454545457,22.892045454545457,22.892045454545457,22.892045454545457,22.892045454545457,22.892045454545457,22.892045454545457,40.08522727272728,40.08522727272728,29.339488636363637,29.339488636363637,29.339488636363637,22.892045454545457,25.757575757575758,20.54752066115703,20.54752066115703,20.54752066115703,20.54752066115703,20.54752066115703,20.54752066115703,20.54752066115703,20.54752066115703,20.54752066115703,20.54752066115703,20.54752066115703,20.54752066115703,20.54752066115703,18.59375,20.54752066115703,18.59375,18.59375,18.59375,18.59375,18.59375,18.59375,18.59375,18.59375,18.59375,18.59375,18.59375,18.59375,18.59375,18.59375,18.59375,18.59375,18.59375,18.59375,18.59375,18.59375,18.59375,18.59375,18.59375,18.59375,18.59375,18.59375,18.59375,18.59375,18.59375,18.59375,18.59375,18.59375,16.94055944055944,18.59375,18.59375,18.59375,18.59375,18.59375,18.59375,16.94055944055944,16.94055944055944,16.94055944055944,16.94055944055944,16.94055944055944,16.94055944055944,16.94055944055944,16.94055944055944,16.94055944055944,18.59375,16.94055944055944,16.94055944055944,16.94055944055944,16.94055944055944,16.94055944055944,16.94055944055944,16.94055944055944,16.94055944055944,16.94055944055944,16.94055944055944,16.94055944055944,16.94055944055944,16.94055944055944,16.94055944055944,16.94055944055944,16.94055944055944,16.94055944055944,16.94055944055944,16.94055944055944,16.94055944055944
22.892045454545457,22.892045454545457,22.892045454545457,22.892045454545457,22.892045454545457,22.892045454545457,22.892045454545457,22.892045454545457,20.54752066115703,20.54752066115703,20.54752066115703,20.54752066115703,20.54752066115703,22.892045454545457,25.757575757575758,25.757575757575758,22.892045454545457,20.54752066115703,20.54752066115703,20.54752066115703,20.54752066115703,25.757575757575758,20.54752066115703,20.54752066115703,20.54752066115703,20.54752066115703,18.59375,18.59375,18.59375,18.59375,18.59375,22.892045454545457,22.892045454545457,20.54752066115703,18.59375,22.892045454545457,22.892045454545457,20.54752066115703,25.757575757575758,25.757575757575758,20.54752066115703,20.54752066115703,20.54752066115703,126.05113636363637,126.05113636363637,16.94055944055944,61.576704545454554,126.05113636363637,40.08522727272728,20.54752066115703,11.429924242424244,20.54752066115703,20.54752066115703,25.757575757575758,25.757575757575758,22.892045454545457,22.892045454545457,22.892045454545457,20.54752066115703,20.54752066115703,20.54752066115703,20.54752066115703,20.54752066115703,20.54752066115703,20.54752066115703,18.59375,18.59375,18.59375,20.54752066115703,16.94055944055944,22.892045454545457,22.892045454545457,22.892045454545457,22.892045454545457,20.54752066115703,20.54752066115703,20.54752066115703,20.54752066115703,20.54752066115703,22.892045454545457,22.892045454545457,22.892045454545457,22.892045454545457,22.892045454545457,22.892045454545457,22.892045454545457,22.892045454545457,22.892045454545457,22.892045454545457,22.892045454545457,40.08522727272728,29.339488636363637,29.339488636363637,22.892045454545457,22.892045454545457,20.54752066115703,20.54752066115703,20.54752066115703,20.54752066115703,20.54752066115703,20.54752066115703,20.54752066115703,20.54752066115703,20.54752066115703,20.54752066115703,20.54752066115703,20.54752066115703,20.54752066115703,18.59375,18.59375,18.59375,18.59375,18.59375,18.59375,18.59375,18.59375,18.59375,18.59375,18.59375,18.59375,18.59375,18.59375,18.59375,18.59375,18.59375,18.59375,18.59375,18.59375,18.59375,18.59375,18.59375,18.59375,18.59375,18.59375,18.59375,18.59375,18.59375,18.59375,18.59375,16.94055944055944,16.94055944055944,16.94055944055944,16.94055944055944,18.59375,18.59375,18.59375,18.59375,18.59375,18.59375,16.94055944055944,16.94055944055944,16.94055944055944,16.94055944055944,16.94055944055944,16.94055944055944,16.94055944055944,16.94055944055944,16.94055944055944,16.94055944055944,16.94055944055944,16.94055944055944,16.94055944055944,16.94055944055944,16.94055944055944,16.94055944055944,16.94055944055944,16.94055944055944,16.94055944055944,16.94055944055944,16.94055944055944,16.94055944055944,16.94055944055944,16.94055944055944,16.94055944055944,16.94055944055944,16.94055944055944,16.94055944055944,16.94055944055944,16.94055944055944
22.892045454545457,22.892045454545457,22.892045454545457,22.892045454545457,22.892045454545457,22.892045454545457,22.892045454545457,20.54752066115703,20.54752066115703,20.54752066115703,20.54752066115703,20.54752066115703,20.54752066115703,22.892045454545457,20.54752066115703,22.892045454545457,22.892045454545457,20.54752066115703,20.54752066115703,20.54752066115703,20.54752066115703,20.54752066115703,20.54752066115703,20.54752066115703,25.757575757575758,25.757575757575758,18.59375,25.757575757575758,22.892045454545457,25.757575757575758,18.59375,40.08522727272728,22.892045454545457,20.54752066115703,18.59375,20.54752066115703,22.892045454545457,255.0,22.892045454545457,255.0,20.54752066115703,14.295454545454547,83.06818181818181,126.05113636363637,126.05113636363637,15.52353896103896,25.757575757575758,25.757575757575758,25.757575757575758,25.757575757575758,25.757575757575758,22.892045454545457,18.59375,25.757575757575758,25.757575757575758,18.59375,22.892045454545457,22.892045454545457,20.54752066115703,20.54752066115703,20.54752066115703,20.54752066115703,18.59375,22.892045454545457,20.54752066115703,18.59375,18.59375,18.59375,20.54752066115703,22.892045454545457,22.892045454545457,22.892045454545457,22.892045454545457,22.892045454545457,20.54752066115703,20.54752066115703,25.757575757575758,25.757575757575758,22.892045454545457,22.892045454545457,25.757575757575758,22.892045454545457,22.892045454545457,22.892045454545457,22.892045454545457,22.892045454545457,22.892045454545457,22.892045454545457,22.892045454545457,22.892045454545457,22.892045454545457,29.339488636363637,29.339488636363637,25.757575757575758,20.54752066115703,20.54752066115703,20.54752066115703,20.54752066115703,20.54752066115703,20.54752066115703,20.54752066115703,20.54752066115703,20.54752066115703,20.54752066115703,20.54752066115703,20.54752066115703,20.54752066115703,18.59375,18.59375,18.59375,18.59375,18.59375,18.59375,18.59375,18.59375,18.59375,18.59375,18.59375,18.59375,18.59375,18.59375,18.59375,18.59375,18.59375,18.59375,18.59375,18.59375,18.59375,18.59375,18.59375,18.59375,18.59375,18.59375,18.59375,18.59375,18.59375,18.59375,18.59375,16.94055944055944,16.94055944055944,18.59375,18.59375,18.59375,18.59375,18.59375,18.59375,18.59375,18.59375,18.59375,16.94055944055944,16.94055944055944,16.94055944055944,16.94055944055944,16.94055944055944,16.94055944055944,16.94055944055944,16.94055944055944,18.59375,16.94055944055944,16.94055944055944,16.94055944055944,16.94055944055944,16.94055944055944,16.94055944055944,16.94055944055944,16.94055944055944,16.94055944055944,18.59375,16.94055944055944,16.94055944055944,16.94055944055944,16.94055944055944,16.94055944055944,16.94055944055944,16.94055944055944,16.94055944055944,16.94055944055944,16.94055944055944,16.94055944055944
22.892045454545457,22.892045454545457,22.892045454545457,22.892045454545457,22.892045454545457,25.757575757575758,22.892045454545457,22.892045454545457,20.54752066115703,20.54752066115703,20.54752066115703,20.54752066115703,20.54752066115703,22.892045454545457,20.54752066115703,22.892045454545457,22.892045454545457,22.892045454545457,22.892045454545457,20.54752066115703,20.54752066115703,20.54752066115703,20.54752066115703,20.54752066115703,18.59375,22.892045454545457,18.59375,20.54752066115703,18.59375,20.54752066115703,18.59375,40.08522727272728,22.892045454545457,20.54752066115703,18.59375,20.54752066115703,20.54752066115703,255.0,22.892045454545457,255.0,20.54752066115703,14.295454545454547,15.52353896103896,15.52353896103896,15.52353896103896,15.52353896103896,8.31521739130435,10.675837320574164,25.757575757575758,7.848011363636364,7.848011363636364,25.757575757575758,18.59375,16.94055944055944,18.59375,18.59375,18.59375,20.54752066115703,20.54752066115703,20.54752066115703,20.54752066115703,18.59375,18.59375,15.52353896103896,20.54752066115703,20.54752066115703,20.54752066115703,20.54752066115703,20.54752066115703,22.892045454545457,22.892045454545457,22.892045454545457,22.892045454545457,22.892045454545457,20.54752066115703,20.54752066115703,33.94480519480519,22.892045454545457,22.892045454545457,22.892045454545457,22.892045454545457,22.892045454545457,22.892045454545457,22.892045454545457,22.892045454545457,22.892045454545457,25.757575757575758,25.757575757575758,22.892045454545457,22.892045454545457,22.892045454545457,22.892045454545457,22.892045454545457,22.892045454545457,20.54752066115703,20.54752066115703,18.59375,20.54752066115703,20.54752066115703,20.54752066115703,20.54752066115703,20.54752066115703,20.54752066115703,20.54752066115703,20.54752066115703,20.54752066115703,20.54752066115703,18.59375,18.59375,18.59375,18.59375,18.59375,18.59375,18.59375,18.59375,18.59375,18.59375,18.59375,18.59375,18.59375,18.59375,18.59375,18.59375,18.59375,18.59375,18.59375,18.59375,18.59375,18.59375,18.59375,18.59375,18.59375,18.59375,18.59375,18.59375,18.59375,16.94055944055944,16.94055944055944,16.94055944055944,16.94055944055944,18.59375,18.59375,18.59375,18.59375,18.59375,18.59375,18.59375,18.59375,18.59375,16.94055944055944,16.94055944055944,16.94055944055944,16.94055944055944,16.94055944055944,16.94055944055944,16.94055944055944,16.94055944055944,16.94055944055944,16.94055944055944,16.94055944055944,16.94055944055944,16.94055944055944,16.94055944055944,16.94055944055944,16.94055944055944,16.94055944055944,16.94055944055944,16.94055944055944,18.59375,16.94055944055944,16.94055944055944,16.94055944055944,16.94055944055944,16.94055944055944,16.94055944055944,16.94055944055944,16.94055944055944,16.94055944055944,16.94055944055944
22.892045454545457,22.892045454545457,22.892045454545457,22.892045454545457,22.892045454545457,25.757575757575758,22.892045454545457,20.54752066115703,20.54752066115703,20.54752066115703,20.54752066115703,20.54752066115703,22.892045454545457,22.892045454545457,22.892045454545457,22.892045454545457,20.54752066115703,20.54752066115703,20.54752066115703,20.54752066115703,20.54752066115703,25.757575757575758,20.54752066115703,20.54752066115703,25.757575757575758,20.54752066115703,20.54752066115703,20.54752066115703,40.08522727272728,40.08522727272728,40.08522727272728,40.08522727272728,40.08522727272728,20.54752066115703,18.59375,18.59375,20.54752066115703,18.59375,255.0,14.295454545454547,14.295454545454547,16.94055944055944,15.52353896103896,15.52353896103896,15.52353896103896,15.52353896103896,14.295454545454547,10.675837320574164,8.31521739130435,7.848011363636364,25.757575757575758,25.757575757575758,16.94055944055944,16.94055944055944,18.59375,18.59375,18.59375,22.892045454545457,20.54752066115703,20.54752066115703,20.54752066115703,20.54752066115703,20.54752066115703,20.54752066115703,20.54752066115703,20.54752066115703,20.54752066115703,20.54752066115703,22.892045454545457,22.892045454545457,22.892045454545457,22.892045454545457,25.757575757575758,20.54752066115703,20.54752066115703,20.54752066115703,22.892045454545457,22.892045454545457,33.94480519480519,25.757575757575758,22.892045454545457,22.892045454545457,20.54752066115703,22.892045454545457,22.892045454545457,22.892045454545457,25.757575757575758,25.757575757575758,22.892045454545457,22.892045454545457,22.892045454545457,22.892045454545457,22.892045454545457,22.892045454545457,20.54752066115703,20.54752066115703,18.59375,20.54752066115703,20.54752066115703,20.54752066115703,20.54752066115703,20.54752066115703,20.54752066115703,20.54752066115703,20.54752066115703,20.54752066115703,18.59375,18.59375,18.59375,18.59375,18.59375,18.59375,18.59375,18.59375,18.59375,18.59375,18.59375,18.59375,18.59375,18.59375,18.59375,18.59375,18.59375,18.59375,18.59375,18.59375,18.59375,18.59375,18.59375,18.59375,18.59375,18.59375,18.59375,18.59375,18.59375,18.59375,16.94055944055944,16.94055944055944,16.94055944055944,16.94055944055944,18.59375,18.59375,18.59375,18.59375,18.59375,18.59375,18.59375,18.59375,16.94055944055944,16.94055944055944,16.94055944055944,16.94055944055944,16.94055944055944,16.94055944055944,16.94055944055944,16.94055944055944,16.94055944055944,16.94055944055944,16.94055944055944,16.94055944055944,16.94055944055944,16.94055944055944,16.94055944055944,16.94055944055944,16.94055944055944,16.94055944055944,16.94055944055944,16.94055944055944,16.94055944055944,16.94055944055944,16.94055944055944,16.94055944055944,16.94055944055944,16.94055944055944,16.94055944055944,16.94055944055944,16.94055944055944,16.94055944055944,16.94055944055944
22.892045454545457,22.892045454545457,22.892045454545457,22.892045454545457,25.757575757575758,25.757575757575758,22.892045454545457,22.892045454545457,20.54752066115703,20.54752066115703,20.54752066115703,25.757575757575758,22.892045454545457,22.892045454545457,22.892045454545457,22.892045454545457,20.54752066115703,20.54752066115703,22.892045454545457,20.54752066115703,20.54752066115703,25.757575757575758,22.892045454545457,20.54752066115703,22.892045454545457,22.892045454545457,20.54752066115703,20.54752066115703,22.892045454545457,22.892045454545457,22.892045454545457,40.08522727272728,40.08522727272728,20.54752066115703,18.59375,20.54752066115703,18.59375,18.59375,61.576704545454554,48.68181818181819,48.68181818181819,48.68181818181819,33.94480519480519,15.52353896103896,20.54752066115703,18.59375,18.59375,18.59375,18.59375,18.59375,18.59375,18.59375,16.94055944055944,16.94055944055944,16.94055944055944,11.429924242424244,20.54752066115703,20.54752066115703,20.54752066115703,20.54752066115703,20.54752066115703,40.08522727272728,20.54752066115703,20.54752066115703,20.54752066115703,20.54752066115703,20.54752066115703,18.59375,16.94055944055944,22.892045454545457,22.892045454545457,22.892045454545457,22.892045454545457,1.1958874458874462,20.54752066115703,20.54752066115703,20.54752066115703,22.892045454545457,20.54752066115703,20.54752066115703,22.892045454545457,22.892045454545457,20.54752066115703,25.757575757575758,22.892045454545457,25.757575757575758,25.757575757575758,25.757575757575758,25.757575757575758,22.892045454545457,22.892045454545457,22.892045454545457,22.892045454545457,22.892045454545457,20.54752066115703,20.54752066115703,18.59375,20.54752066115703,20.54752066115703,20.54752066115703,20.54752066115703,20.54752066115703,20.54752066115703,20.54752066115703,20.54752066115703,20.54752066115703,20.54752066115703,18.59375,18.59375,18.59375,18.59375,18.59375,18.59375,18.59375,18.59375,18.59375,18.59375,18.59375,18.59375,18.59375,18.59375,18.59375,18.59375,18.59375,18.59375,18.59375,18.59375,18.59375,18.59375,18.59375,18.59375,18.59375,18.59375,18.59375,18.59375,18.59375,16.94055944055944,16.94055944055944,16.94055944055944,18.59375,16.94055944055944,18.59375,18.59375,18.59375,18.59375,18.59375,18.59375,16.94055944055944,16.94055944055944,16.94055944055944,16.94055944055944,16.94055944055944,16.94055944055944,16.94055944055944,16.94055944055944,16.94055944055944,16.94055944055944,16.94055944055944,16.94055944055944,16.94055944055944,16.94055944055944,16.94055944055944,16.94055944055944,16.94055944055944,16.94055944055944,16.94055944055944,16.94055944055944,16.94055944055944,16.94055944055944,16.94055944055944,16.94055944055944,16.94055944055944,16.94055944055944,16.94055944055944,16.94055944055944,16.94055944055944,16.94055944055944,16.94055944055944,16.94055944055944
22.892045454545457,22.892045454545457,22.892045454545457,22.892045454545457,22.892045454545457,22.892045454545457,22.892045454545457,22.892045454545457,22.892045454545457,20.54752066115703,20.54752066115703,25.757575757575758,25.757575757575758,22.892045454545457,22.892045454545457,22.892045454545457,20.54752066115703,25.757575757575758,20.54752066115703,20.54752066115703,20.54752066115703,20.54752066115703,20.54752066115703,20.54752066115703,22.892045454545457,22.892045454545457,20.54752066115703,22.892045454545457,22.892045454545457,22.892045454545457,22.892045454545457,40.08522727272728,25.757575757575758,40.08522727272728,40.08522727272728,18.59375,25.757575757575758,18.59375,61.576704545454554,61.576704545454554,48.68181818181819,48.68181818181819,15.52353896103896,15.52353896103896,15.52353896103896,15.52353896103896,18.59375,18.59375,18.59375,18.59375,18.59375,18.59375,16.94055944055944,16.94055944055944,16.94055944055944,11.429924242424244,11.429924242424244,20.54752066115703,20.54752066115703,18.59375,3.3924611973392467,3.3924611973392467,20.54752066115703,14.295454545454547,14.295454545454547,20.54752066115703,2.260227272727273,18.59375,22.892045454545457,22.892045454545457,25.757575757575758,22.892045454545457,22.892045454545457,1.131924715909091,20.54752066115703,20.54752066115703,22.892045454545457,22.892045454545457,22.892045454545457,22.892045454545457,22.892045454545457,22.892045454545457,20.54752066115703,25.757575757575758,22.892045454545457,25.757575757575758,25.757575757575758,25.757575757575758,25.757575757575758,25.757575757575758,22.892045454545457,22.892045454545457,22.892045454545457,22.892045454545457,20.54752066115703,20.54752066115703,16.94055944055944,20.54752066115703,20.54752066115703,20.54752066115703,20.54752066115703,20.54752066115703,20.54752066115703,20.54752066115703,20.54752066115703,20.54752066115703,20.54752066115703,20.54752066115703,18.59375,18.59375,18.59375,18.59375,18.59375,18.59375,18.59375,18.59375,18.59375,18.59375,18.59375,18.59375,18.59375,18.59375,18.59375,18.59375,18.59375,18.59375,18.59375,18.59375,18.59375,18.59375,18.59375,18.59375,18.59375,18.59375,16.94055944055944,18.59375,16.94055944055944,14.295454545454547,16.94055944055944,18.59375,16.94055944055944,18.59375,18.59375,18.59375,18.59375,18.59375,18.59375,16.94055944055944,16.94055944055944,16.94055944055944,16.94055944055944,16.94055944055944,16.94055944055944,16.94055944055944,16.94055944055944,16.94055944055944,16.94055944055944,18.59375,16.94055944055944,16.94055944055944,16.94055944055944,16.94055944055944,16.94055944055944,16.94055944055944,16.94055944055944,16.94055944055944,16.94055944055944,16.94055944055944,16.94055944055944,16.94055944055944,16.94055944055944,16.94055944055944,16.94055944055944,16.94055944055944,16.94055944055944,16.94055944055944,16.94055944055944,16.94055944055944,16.94055944055944
25.757575757575758,22.892045454545457,22.892045454545457,22.892045454545457,22.892045454545457,22.892045454545457,22.892045454545457,22.892045454545457,22.892045454545457,20.54752066115703,25.757575757575758,25.757575757575758,25.757575757575758,22.892045454545457,22.892045454545457,22.892045454545457,22.892045454545457,25.757575757575758,25.757575757575758,20.54752066115703,20.54752066115703,20.54752066115703,20.54752066115703,20.54752066115703,20.54752066115703,18.59375,20.54752066115703,20.54752066115703,33.94480519480519,22.892045454545457,22.892045454545457,40.08522727272728,25.757575757575758,25.757575757575758,25.757575757575758,25.757575757575758,25.757575757575758,61.576704545454554,61.576704545454554,61.576704545454554,48.68181818181819,40.08522727272728,25.757575757575758,25.757575757575758,15.52353896103896,14.295454545454547,18.59375,18.59375,18.59375,9.383116883116886,9.383116883116886,9.997159090909092,12.272727272727273,18.59375,11.429924242424244,13.220880681818183,11.429924242424244,25.757575757575758,22.892045454545457,22.892045454545457,3.3924611973392467,3.3924611973392467,3.2426948051948057,20.54752066115703,20.54752066115703,2.260227272727273,2.260227272727273,18.59375,18.59375,25.757575757575758,25.757575757575758,22.892045454545457,22.892045454545457,22.892045454545457,22.892045454545457,20.54752066115703,22.892045454545457,22.892045454545457,20.54752066115703,25.757575757575758,22.892045454545457,22.892045454545457,25.757575757575758,25.757575757575758,25.757575757575758,25.757575757575758,25.757575757575758,25.757575757575758,22.892045454545457,22.892045454545457,22.892045454545457,22.892045454545457,22.892045454545457,20.54752066115703,20.54752066115703,20.54752066115703,16.94055944055944,20.54752066115703,20.54752066115703,20.54752066115703,20.54752066115703,20.54752066115703,20.54752066115703,20.54752066115703,20.54752066115703,20.54752066115703,20.54752066115703,20.54752066115703,18.59375,18.59375,18.59375,18.59375,18.59375,18.59375,18.59375,18.59375,18.59375,18.59375,18.59375,18.59375,18.59375,18.59375,18.59375,18.59375,18.59375,18.59375,18.59375,18.59375,18.59375,18.59375,18.59375,18.59375,18.59375,18.59375,18.59375,18.59375,16.94055944055944,16.94055944055944,16.94055944055944,18.59375,16.94055944055944,18.59375,18.59375,18.59375,18.59375,18.59375,16.94055944055944,16.94055944055944,16.94055944055944,16.94055944055944,16.94055944055944,16.94055944055944,16.94055944055944,16.94055944055944,16.94055944055944,16.94055944055944,16.94055944055944,18.59375,16.94055944055944,18.59375,16.94055944055944,18.59375,18.59375,61.576704545454554,16.94055944055944,16.94055944055944,16.94055944055944,16.94055944055944,16.94055944055944,16.94055944055944,16.94055944055944,16.94055944055944,16.94055944055944,16.94055944055944,16.94055944055944,16.94055944055944,16.94055944055944,16.94055944055944,16.94055944055944
29.339488636363637,25.757575757575758,25.757575757575758,22.892045454545457,22.892045454545457,22.892045454545457,22.892045454545457,22.892045454545457,22.892045454545457,29.339488636363637,29.339488636363637,25.757575757575758,25.757575757575758,29.339488636363637,25.757575757575758,25.757575757575758,22.892045454545457,25.757575757575758,25.757575757575758,25.757575757575758,22.892045454545457,20.54752066115703,20.54752066115703,20.54752066115703,33.94480519480519,33.94480519480519,33.94480519480519,33.94480519480519,33.94480519480519,40.08522727272728,22.892045454545457,22.892045454545457,25.757575757575758,29.339488636363637,25.757575757575758,25.757575757575758,25.757575757575758,25.757575757575758,20.54752066115703,18.59375,40.08522727272728,29.339488636363637,25.757575757575758,25.757575757575758,25.757575757575758,18.59375,18.59375,18.59375,9.383116883116886,9.383116883116886,9.383116883116886,9.383116883116886,6.654040404040405,7.021416083916084,6.654040404040405,11.429924242424244,11.429924242424244,11.429924242424244,20.54752066115703,22.892045454545457,3.3924611973392467,3.2426948051948057,3.2426948051948057,20.54752066115703,20.54752066115703,20.54752066115703,20.54752066115703,18.59375,1.7075892857142854,1.7075892857142854,1.4005681818181819,1.3301043219076008,22.892045454545457,22.892045454545457,22.892045454545457,22.892045454545457,22.892045454545457,22.892045454545457,22.892045454545457,25.757575757575758,22.892045454545457,25.757575757575758,25.757575757575758,25.757575757575758,25.757575757575758,25.757575757575758,25.757575757575758,22.892045454545457,22.892045454545457,25.757575757575758,22.892045454545457,20.54752066115703,20.54752066115703,20.54752066115703,18.59375,16.94055944055944,16.94055944055944,20.54752066115703,20.54752066115703,20.54752066115703,20.54752066115703,20.54752066115703,20.54752066115703,20.54752066115703,20.54752066115703,20.54752066115703,18.59375,20.54752066115703,18.59375,18.59375,18.59375,18.59375,18.59375,18.59375,18.59375,18.59375,18.59375,18.59375,18.59375,18.59375,18.59375,18.59375,18.59375,18.59375,18.59375,18.59375,18.59375,18.59375,18.59375,18.59375,18.59375,18.59375,18.59375,18.59375,18.59375,18.59375,18.59375,18.59375,18.59375,18.59375,16.94055944055944,18.59375,18.59375,16.94055944055944,16.94055944055944,18.59375,16.94055944055944,16.94055944055944,18.59375,16.94055944055944,16.94055944055944,16.94055944055944,16.94055944055944,16.94055944055944,16.94055944055944,16.94055944055944,16.94055944055944,18.59375,18.59375,18.59375,18.59375,18.59375,18.59375,22.892045454545457,18.59375,18.59375,16.94055944055944,16.94055944055944,16.94055944055944,16.94055944055944,16.94055944055944,16.94055944055944,16.94055944055944,16.94055944055944,16.94055944055944,16.94055944055944,16.94055944055944,16.94055944055944,16.94055944055944
29.339488636363637,25.757575757575758,22.892045454545457,22.892045454545457,22.892045454545457,22.892045454545457,22.892045454545457,22.892045454545457,22.892045454545457,22.892045454545457,25.757575757575758,25.757575757575758,22.892045454545457,22.892045454545457,25.757575757575758,22.892045454545457,22.892045454545457,25.757575757575758,25.757575757575758,29.339488636363637,22.892045454545457,33.94480519480519,29.339488636363637,33.94480519480519,33.94480519480519,33.94480519480519,40.08522727272728,33.94480519480519,40.08522727272728,22.892045454545457,20.54752066115703,20.54752066115703,20.54752066115703,29.339488636363637,25.757575757575758,25.757575757575758,25.757575757575758,25.757575757575758,25.757575757575758,25.757575757575758,48.68181818181819,29.339488636363637,25.757575757575758,25.757575757575758,25.757575757575758,18.59375,18.59375,18.59375,9.383116883116886,9.383116883116886,9.383116883116886,25.757575757575758,9.997159090909092,7.021416083916084,6.654040404040405,12.272727272727273,12.272727272727273,18.59375,20.54752066115703,22.892045454545457,3.3924611973392467,3.2426948051948057,3.2426948051948057,14.295454545454547,13.220880681818183,20.54752066115703,2.260227272727273,2.1590909090909096,1.7075892857142854,29.339488636363637,1.4005681818181819,22.892045454545457,22.892045454545457,22.892045454545457,22.892045454545457,22.892045454545457,22.892045454545457,22.892045454545457,22.892045454545457,22.892045454545457,25.757575757575758,25.757575757575758,25.757575757575758,25.757575757575758,25.757575757575758,25.757575757575758,25.757575757575758,25.757575757575758,25.757575757575758,25.757575757575758,22.892045454545457,25.757575757575758,25.757575757575758,20.54752066115703,16.94055944055944,16.94055944055944,20.54752066115703,20.54752066115703,20.54752066115703,20.54752066115703,20.54752066115703,20.54752066115703,20.54752066115703,20.54752066115703,20.54752066115703,20.54752066115703,18.59375,20.54752066115703,18.59375,18.59375,18.59375,18.59375,18.59375,18.59375,18.59375,18.59375,18.59375,18.59375,18.59375,18.59375,18.59375,18.59375,18.59375,18.59375,18.59375,18.59375,18.59375,18.59375,18.59375,18.59375,18.59375,18.59375,18.59375,18.59375,18.59375,18.59375,18.59375,18.59375,18.59375,18.59375,18.59375,18.59375,18.59375,16.94055944055944,16.94055944055944,18.59375,16.94055944055944,16.94055944055944,18.59375,18.59375,16.94055944055944,16.94055944055944,16.94055944055944,16.94055944055944,16.94055944055944,16.94055944055944,16.94055944055944,18.59375,16.94055944055944,16.94055944055944,16.94055944055944,18.59375,18.59375,22.892045454545457,20.54752066115703,18.59375,16.94055944055944,16.94055944055944,16.94055944055944,16.94055944055944,16.94055944055944,16.94055944055944,16.94055944055944,16.94055944055944,16.94055944055944,16.94055944055944,16.94055944055944,16.94055944055944,16.94055944055944
29.339488636363637,25.757575757575758,22.892045454545457,22.892045454545457,22.892045454545457,22.892045454545457,22.892045454545457,22.892045454545457,22.892045454545457,22.892045454545457,22.892045454545457,22.892045454545457,22.892045454545457,22.892045454545457,22.892045454545457,22.892045454545457,22.892045454545457,22.892045454545457,25.757575757575758,25.757575757575758,22.892045454545457,29.339488636363637,29.339488636363637,29.339488636363637,29.339488636363637,29.339488636363637,25.757575757575758,22.892045454545457,40.08522727272728,22.892045454545457,25.757575757575758,22.892045454545457,25.757575757575758,29.339488636363637,25.757575757575758,25.757575757575758,25.757575757575758,25.757575757575758,25.757575757575758,29.339488636363637,29.339488636363637,29.339488636363637,25.757575757575758,25.757575757575758,25.757575757575758,18.59375,18.59375,18.59375,11.429924242424244,9.383116883116886,9.383116883116886,9.383116883116886,8.31521739130435,7.021416083916084,6.654040404040405,20.54752066115703,20.54752066115703,18.59375,22.892045454545457,22.892045454545457,20.54752066115703,3.2426948051948057,20.54752066115703,20.54752066115703,13.220880681818183,2.1590909090909096,29.339488636363637,29.339488636363637,29.339488636363637,25.757575757575758,22.892045454545457,22.892045454545457,22.892045454545457,22.892045454545457,22.892045454545457,22.892045454545457,22.892045454545457,22.892045454545457,22.892045454545457,22.892045454545457,25.757575757575758,25.757575757575758,25.757575757575758,25.757575757575758,25.757575757575758,25.757575757575758,25.757575757575758,25.757575757575758,25.757575757575758,25.757575757575758,22.892045454545457,20.54752066115703,25.757575757575758,20.54752066115703,16.94055944055944,16.94055944055944,20.54752066115703,20.54752066115703,20.54752066115703,20.54752066115703,20.54752066115703,20.54752066115703,20.54752066115703,20.54752066115703,20.54752066115703,20.54752066115703,18.59375,18.59375,18.59375,18.59375,18.59375,18.59375,18.59375,18.59375,18.59375,18.59375,18.59375,18.59375,18.59375,18.59375,18.59375,18.59375,18.59375,18.59375,18.59375,18.59375,18.59375,18.59375,18.59375,18.59375,18.59375,18.59375,18.59375,18.59375,18.59375,18.59375,18.59375,18.59375,18.59375,18.59375,18.59375,18.59375,18.59375,16.94055944055944,16.94055944055944,16.94055944055944,16.94055944055944,16.94055944055944,16.94055944055944,18.59375,16.94055944055944,16.94055944055944,16.94055944055944,16.94055944055944,16.94055944055944,16.94055944055944,16.94055944055944,16.94055944055944,16.94055944055944,16.94055944055944,16.94055944055944,16.94055944055944,16.94055944055944,16.94055944055944,16.94055944055944,16.94055944055944,16.94055944055944,16.94055944055944,16.94055944055944,16.94055944055944,16.94055944055944,16.94055944055944,16.94055944055944,16.94055944055944,16.94055944055944,16.94055944055944,16.94055944055944,16.94055944055944,16.94055944055944
25.757575757575758,25.757575757575758,22.892045454545457,22.892045454545457,22.892045454545457,22.892045454545457,22.892045454545457,22.892045454545457,22.892045454545457,22.892045454545457,22.892045454545457,22.892045454545457,25.757575757575758,22.892045454545457,25.757575757575758,25.757575757575758,22.892045454545457,25.757575757575758,25.757575757575758,20.54752066115703,22.892045454545457,29.339488636363637,29.339488636363637,29.339488636363637,22.892045454545457,29.339488636363637,22.892045454545457,22.892045454545457,22.892045454545457,22.892045454545457,25.757575757575758,18.59375,18.59375,18.59375,25.757575757575758,22.892045454545457,22.892045454545457,22.892045454545457,83.06818181818181,22.892045454545457,29.339488636363637,29.339488636363637,29.339488636363637,25.757575757575758,25.757575757575758,18.59375,18.59375,14.295454545454547,14.295454545454547,14.295454545454547,14.295454545454547,22.892045454545457,22.892045454545457,7.848011363636364,6.654040404040405,20.54752066115703,20.54752066115703,18.59375,22.892045454545457,22.892045454545457,3.2426948051948057,3.2426948051948057,14.295454545454547,14.295454545454547,12.272727272727273,29.339488636363637,29.339488636363637,29.339488636363637,29.339488636363637,29.339488636363637,22.892045454545457,22.892045454545457,22.892045454545457,22.892045454545457,22.892045454545457,22.892045454545457,22.892045454545457,22.892045454545457,22.892045454545457,29.339488636363637,29.339488636363637,25.757575757575758,25.757575757575758,25.757575757575758,25.757575757575758,25.757575757575758,25.757575757575758,25.757575757575758,22.892045454545457,25.757575757575758,22.892045454545457,25.757575757575758,25.757575757575758,25.757575757575758,22.892045454545457,20.54752066115703,20.54752066115703,20.54752066115703,20.54752066115703,20.54752066115703,20.54752066115703,20.54752066115703,20.54752066115703,20.54752066115703,20.54752066115703,20.54752066115703,18.59375,18.59375,18.59375,18.59375,18.59375,18.59375,18.59375,18.59375,18.59375,18.59375,18.59375,18.59375,18.59375,18.59375,18.59375,18.59375,18.59375,18.59375,18.59375,18.59375,18.59375,18.59375,18.59375,18.59375,18.59375,18.59375,18.59375,18.59375,18.59375,18.59375,18.59375,18.59375,18.59375,18.59375,18.59375,18.59375,18.59375,16.94055944055944,16.94055944055944,16.94055944055944,16.94055944055944,16.94055944055944,16.94055944055944,18.59375,16.94055944055944,16.94055944055944,16.94055944055944,16.94055944055944,16.94055944055944,16.94055944055944,16.94055944055944,16.94055944055944,16.94055944055944,16.94055944055944,16.94055944055944,16.94055944055944,16.94055944055944,16.94055944055944,16.94055944055944,16.94055944055944,18.59375,16.94055944055944,16.94055944055944,16.94055944055944,16.94055944055944,16.94055944055944,16.94055944055944,16.94055944055944,16.94055944055944,16.94055944055944,16.94055944055944,16.94055944055944,16.94055944055944
25.757575757575758,22.892045454545457,22.892045454545457,22.892045454545457,22.892045454545457,22.892045454545457,22.892045454545457,22.892045454545457,22.892045454545457,22.892045454545457,22.892045454545457,22.892045454545457,22.892045454545457,22.892045454545457,22.892045454545457,22.892045454545457,22.892045454545457,22.892045454545457,22.892045454545457,29.339488636363637,29.339488636363637,25.757575757575758,29.339488636363637,25.757575757575758,22.892045454545457,22.892045454545457,22.892045454545457,22.892045454545457,22.892045454545457,18.59375,25.757575757575758,16.94055944055944,18.59375,18.59375,20.54752066115703,22.892045454545457,22.892045454545457,22.892045454545457,22.892045454545457,22.892045454545457,20.54752066115703,29.339488636363637,20.54752066115703,18.59375,18.59375,16.94055944055944,18.59375,14.295454545454547,14.295454545454547,14.295454545454547,14.295454545454547,14.295454545454547,22.892045454545457,7.418181818181819,20.54752066115703,20.54752066115703,20.54752066115703,18.59375,18.59375,16.94055944055944,16.94055944055944,14.295454545454547,14.295454545454547,13.220880681818183,13.220880681818183,12.272727272727273,29.339488636363637,29.339488636363637,25.757575757575758,29.339488636363637,25.757575757575758,22.892045454545457,22.892045454545457,22.892045454545457,22.892045454545457,22.892045454545457,22.892045454545457,22.892045454545457,22.892045454545457,29.339488636363637,29.339488636363637,25.757575757575758,25.757575757575758,25.757575757575758,25.757575757575758,25.757575757575758,25.757575757575758,25.757575757575758,25.757575757575758,25.757575757575758,25.757575757575758,25.757575757575758,25.757575757575758,25.757575757575758,22.892045454545457,20.54752066115703,20.54752066115703,20.54752066115703,20.54752066115703,20.54752066115703,20.54752066115703,20.54752066115703,20.54752066115703,20.54752066115703,20.54752066115703,20.54752066115703,18.59375,18.59375,18.59375,18.59375,18.59375,18.59375,18.59375,18.59375,18.59375,18.59375,18.59375,18.59375,18.59375,18.59375,18.59375,18.59375,18.59375,18.59375,18.59375,18.59375,18.59375,18.59375,18.59375,18.59375,18.59375,18.59375,18.59375,18.59375,18.59375,18.59375,18.59375,18.59375,18.59375,18.59375,18.59375,18.59375,18.59375,16.94055944055944,16.94055944055944,16.94055944055944,16.94055944055944,16.94055944055944,16.94055944055944,16.94055944055944,16.94055944055944,16.94055944055944,16.94055944055944,16.94055944055944,16.94055944055944,16.94055944055944,16.94055944055944,16.94055944055944,16.94055944055944,16.94055944055944,16.94055944055944,16.94055944055944,16.94055944055944,16.94055944055944,16.94055944055944,16.94055944055944,16.94055944055944,16.94055944055944,16.94055944055944,16.94055944055944,16.94055944055944,16.94055944055944,16.94055944055944,16.94055944055944,16.94055944055944,16.94055944055944,16.94055944055944,16.94055944055944,16.94055944055944
25.757575757575758,22.892045454545457,22.892045454545457,22.892045454545457,22.892045454545457,22.892045454545457,22.892045454545457,22.892045454545457,20.54752066115703,22.892045454545457,22.892045454545457,22.892045454545457,22.892045454545457,22.892045454545457,22.892045454545457,22.892045454545457,20.54752066115703,20.54752066115703,16.94055944055944,20.54752066115703,25.757575757575758,25.757575757575758,25.757575757575758,25.757575757575758,22.892045454545457,22.892045454545457,22.892045454545457,20.54752066115703,18.59375,18.59375,18.59375,16.94055944055944,16.94055944055944,16.94055944055944,16.94055944055944,22.892045454545457,22.892045454545457,22.892045454545457,22.892045454545457,20.54752066115703,29.339488636363637,29.339488636363637,29.339488636363637,18.59375,22.892045454545457,22.892045454545457,22.892045454545457,22.892045454545457,7.848011363636364,14.295454545454547,14.295454545454547,25.757575757575758,22.892045454545457,22.892045454545457,22.892045454545457,25.757575757575758,25.757575757575758,25.757575757575758,25.757575757575758,16.94055944055944,16.94055944055944,14.295454545454547,13.220880681818183,2.5894584139264993,2.5894584139264993,22.892045454545457,25.757575757575758,22.892045454545457,25.757575757575758,25.757575757575758,25.757575757575758,22.892045454545457,22.892045454545457,22.892045454545457,22.892045454545457,22.892045454545457,22.892045454545457,22.892045454545457,22.892045454545457,29.339488636363637,25.757575757575758,22.892045454545457,22.892045454545457,25.757575757575758,25.757575757575758,29.339488636363637,25.757575757575758,25.757575757575758,25.757575757575758,25.757575757575758,25.757575757575758,25.757575757575758,25.757575757575758,25.757575757575758,22.892045454545457,20.54752066115703,20.54752066115703,20.54752066115703,20.54752066115703,20.54752066115703,20.54752066115703,20.54752066115703,20.54752066115703,20.54752066115703,20.54752066115703,20.54752066115703,18.59375,18.59375,18.59375,18.59375,18.59375,18.59375,18.59375,18.59375,18.59375,18.59375,18.59375,18.59375,18.59375,18.59375,18.59375,18.59375,18.59375,18.59375,18.59375,18.59375,18.59375,18.59375,18.59375,18.59375,18.59375,18.59375,18.59375,18.59375,18.59375,18.59375,18.59375,18.59375,18.59375,18.59375,18.59375,18.59375,18.59375,16.94055944055944,16.94055944055944,18.59375,16.94055944055944,16.94055944055944,16.94055944055944,16.94055944055944,16.94055944055944,16.94055944055944,16.94055944055944,16.94055944055944,16.94055944055944,16.94055944055944,16.94055944055944,16.94055944055944,16.94055944055944,16.94055944055944,16.94055944055944,16.94055944055944,16.94055944055944,16.94055944055944,16.94055944055944,16.94055944055944,16.94055944055944,16.94055944055944,16.94055944055944,16.94055944055944,16.94055944055944,16.94055944055944,16.94055944055944,16.94055944055944,16.94055944055944,16.94055944055944,16.94055944055944,16.94055944055944,16.94055944055944
25.757575757575758,22.892045454545457,22.892045454545457,22.892045454545457,22.892045454545457,22.892045454545457,22.892045454545457,22.892045454545457,22.892045454545457,22.892045454545457,25.757575757575758,22.892045454545457,25.757575757575758,22.892045454545457,22.892045454545457,22.892045454545457,20.54752066115703,20.54752066115703,22.892045454545457,25.757575757575758,25.757575757575758,25.757575757575758,25.757575757575758,25.757575757575758,22.892045454545457,20.54752066115703,20.54752066115703,20.54752066115703,22.892045454545457,25.757575757575758,25.757575757575758,25.757575757575758,22.892045454545457,22.892045454545457,14.295454545454547,22.892045454545457,20.54752066115703,22.892045454545457,20.54752066115703,20.54752066115703,20.54752066115703,20.54752066115703,20.54752066115703,16.94055944055944,22.892045454545457,22.892045454545457,22.892045454545457,22.892045454545457,22.892045454545457,22.892045454545457,22.892045454545457,22.892045454545457,22.892045454545457,22.892045454545457,25.757575757575758,25.757575757575758,25.757575757575758,25.757575757575758,25.757575757575758,25.757575757575758,16.94055944055944,14.295454545454547,13.220880681818183,2.5894584139264993,22.892045454545457,22.892045454545457,22.892045454545457,22.892045454545457,25.757575757575758,22.892045454545457,25.757575757575758,25.757575757575758,25.757575757575758,22.892045454545457,22.892045454545457,25.757575757575758,25.757575757575758,22.892045454545457,22.892045454545457,29.339488636363637,22.892045454545457,25.757575757575758,25.757575757575758,25.757575757575758,25.757575757575758,25.757575757575758,25.757575757575758,25.757575757575758,25.757575757575758,25.757575757575758,25.757575757575758,25.757575757575758,25.757575757575758,25.757575757575758,22.892045454545457,20.54752066115703,20.54752066115703,20.54752066115703,20.54752066115703,20.54752066115703,20.54752066115703,20.54752066115703,20.54752066115703,20.54752066115703,20.54752066115703,20.54752066115703,20.54752066115703,20.54752066115703,18.59375,18.59375,18.59375,18.59375,18.59375,18.59375,18.59375,18.59375,18.59375,18.59375,18.59375,18.59375,18.59375,18.59375,18.59375,18.59375,18.59375,18.59375,18.59375,18.59375,18.59375,18.59375,18.59375,18.59375,18.59375,18.59375,18.59375,18.59375,18.59375,18.59375,18.59375,18.59375,18.59375,18.59375,18.59375,16.94055944055944,16.94055944055944,16.94055944055944,16.94055944055944,16.94055944055944,16.94055944055944,16.94055944055944,16.94055944055944,16.94055944055944,16.94055944055944,18.59375,16.94055944055944,16.94055944055944,16.94055944055944,16.94055944055944,16.94055944055944,16.94055944055944,16.94055944055944,16.94055944055944,16.94055944055944,16.94055944055944,16.94055944055944,16.94055944055944,16.94055944055944,16.94055944055944,16.94055944055944,16.94055944055944,16.94055944055944,16.94055944055944,16.94055944055944,16.94055944055944,16.94055944055944,16.94055944055944,16.94055944055944,16.94055944055944,16.94055944055944
22.892045454545457,22.892045454545457,22.892045454545457,22.892045454545457,22.892045454545457,22.892045454545457,22.892045454545457,22.892045454545457,22.892045454545457,22.892045454545457,25.757575757575758,29.339488636363637,29.339488636363637,29.339488636363637,22.892045454545457,22.892045454545457,25.757575757575758,25.757575757575758,22.892045454545457,29.339488636363637,25.757575757575758,25.757575757575758,25.757575757575758,25.757575757575758,22.892045454545457,22.892045454545457,22.892045454545457,20.54752066115703,22.892045454545457,20.54752066115703,20.54752066115703,18.59375,22.892045454545457,20.54752066115703,20.54752066115703,22.892045454545457,20.54752066115703,22.892045454545457,20.54752066115703,20.54752066115703,20.54752066115703,22.892045454545457,22.892045454545457,22.892045454545457,22.892045454545457,22.892045454545457,22.892045454545457,22.892045454545457,22.892045454545457,22.892045454545457,22.892045454545457,22.892045454545457,22.892045454545457,22.892045454545457,25.757575757575758,25.757575757575758,25.757575757575758,25.757575757575758,25.757575757575758,25.757575757575758,16.94055944055944,14.295454545454547,2.833333333333333,2.7087450592885376,22.892045454545457,22.892045454545457,22.892045454545457,22.892045454545457,22.892045454545457,22.892045454545457,25.757575757575758,25.757575757575758,29.339488636363637,25.757575757575758,25.757575757575758,29.339488636363637,25.757575757575758,22.892045454545457,16.94055944055944,22.892045454545457,25.757575757575758,25.757575757575758,25.757575757575758,25.757575757575758,25.757575757575758,25.757575757575758,25.757575757575758,25.757575757575758,25.757575757575758,25.757575757575758,25.757575757575758,25.757575757575758,25.757575757575758,25.757575757575758,22.892045454545457,20.54752066115703,20.54752066115703,20.54752066115703,20.54752066115703,20.54752066115703,20.54752066115703,20.54752066115703,20.54752066115703,20.54752066115703,20.54752066115703,20.54752066115703,20.54752066115703,20.54752066115703,18.59375,18.59375,18.59375,18.59375,18.59375,18.59375,18.59375,18.59375,18.59375,18.59375,18.59375,18.59375,18.59375,18.59375,18.59375,18.59375,18.59375,18.59375,18.59375,18.59375,18.59375,18.59375,18.59375,18.59375,18.59375,18.59375,18.59375,18.59375,18.59375,18.59375,18.59375,18.59375,18.59375,18.59375,18.59375,16.94055944055944,16.94055944055944,16.94055944055944,16.94055944055944,16.94055944055944,16.94055944055944,16.94055944055944,16.94055944055944,16.94055944055944,16.94055944055944,18.59375,16.94055944055944,16.94055944055944,16.94055944055944,16.94055944055944,16.94055944055944,16.94055944055944,16.94055944055944,16.94055944055944,16.94055944055944,16.94055944055944,16.94055944055944,16.94055944055944,16.94055944055944,16.94055944055944,16.94055944055944,16.94055944055944,16.94055944055944,16.94055944055944,16.94055944055944,16.94055944055944,16.94055944055944,16.94055944055944,16.94055944055944,16.94055944055944,16.94055944055944
