7.848011363636364,7.848011363636364,7.848011363636364,7.848011363636364,7.848011363636364,7.418181818181819,7.418181818181819,7.418181818181819,7.418181818181819,7.418181818181819,7.418181818181819,7.418181818181819,7.418181818181819,8.824896694214878,8.31521739130435,8.31521739130435,7.848011363636364,7.418181818181819,7.021416083916084,6.654040404040405,7.021416083916084,6.654040404040405,6.3129058441558445,5.995297805642635,5.995297805642635,6.654040404040405,6.654040404040405,6.654040404040405,6.654040404040405,6.654040404040405,6.654040404040405,6.654040404040405,6.654040404040405,6.654040404040405,6.654040404040405,6.654040404040405,6.654040404040405,7.021416083916084,7.021416083916084,7.021416083916084,6.654040404040405,6.654040404040405,6.654040404040405,6.654040404040405,6.654040404040405,6.654040404040405,6.654040404040405,6.654040404040405,6.654040404040405,6.654040404040405,6.654040404040405,6.654040404040405,6.654040404040405,6.654040404040405,6.654040404040405,6.654040404040405,6.654040404040405,6.654040404040405,6.3129058441558445,6.654040404040405,6.654040404040405,6.654040404040405,6.654040404040405,6.654040404040405,6.654040404040405,7.021416083916084,7.021416083916084,7.021416083916084,7.021416083916084,7.021416083916084,7.021416083916084,5.698863636363637,5.421554252199415,5.698863636363637,7.021416083916084,7.021416083916084,7.021416083916084,7.021416083916084,7.021416083916084,7.021416083916084,7.021416083916084,7.021416083916084,7.021416083916084,7.021416083916084,7.418181818181819,7.418181818181819,7.848011363636364,7.848011363636364,7.848011363636364,7.848011363636364,7.848011363636364,9.997159090909092,9.997159090909092,10.675837320574164,10.675837320574164,10.675837320574164,10.675837320574164,10.675837320574164,10.675837320574164,10.675837320574164,10.675837320574164,9.997159090909092,9.997159090909092,10.675837320574164,11.429924242424244,11.429924242424244,10.675837320574164,10.675837320574164,10.675837320574164,10.675837320574164,10.675837320574164,11.429924242424244,11.429924242424244,10.675837320574164,11.429924242424244,11.429924242424244,11.429924242424244,12.272727272727273,12.272727272727273,12.272727272727273,10.675837320574164,10.675837320574164,10.675837320574164,10.675837320574164,10.675837320574164,9.997159090909092,9.383116883116886,13.220880681818183,13.220880681818183,14.295454545454547,15.52353896103896,15.52353896103896,15.52353896103896,15.52353896103896,15.52353896103896,48.68181818181819,48.68181818181819,40.08522727272728,29.339488636363637,29.339488636363637,25.757575757575758,18.59375,18.59375,18.59375,18.59375,16.94055944055944,13.220880681818183,13.220880681818183,6.654040404040405,12.272727272727273,11.429924242424244,10.675837320574164,8.824896694214878,7.848011363636364,7.848011363636364,7.848011363636364,7.848011363636364,7.848011363636364,7.021416083916084,7.021416083916084,6.654040404040405,9.383116883116886,6.654040404040405,6.654040404040405,7.848011363636364,8.824896694214878,8.31521739130435,8.31521739130435
7.848011363636364,5.698863636363637,7.848011363636364,7.848011363636364,7.848011363636364,7.418181818181819,7.418181818181819,7.418181818181819,7.418181818181819,7.418181818181819,7.418181818181819,7.418181818181819,7.418181818181819,8.824896694214878,8.31521739130435,8.31521739130435,7.848011363636364,7.418181818181819,7.418181818181819,7.418181818181819,7.021416083916084,6.654040404040405,6.654040404040405,5.995297805642635,5.995297805642635,6.654040404040405,6.654040404040405,6.654040404040405,6.654040404040405,6.654040404040405,6.654040404040405,6.654040404040405,6.654040404040405,6.654040404040405,6.654040404040405,6.654040404040405,6.654040404040405,7.021416083916084,7.021416083916084,7.021416083916084,6.654040404040405,6.654040404040405,6.654040404040405,6.654040404040405,6.654040404040405,6.654040404040405,6.654040404040405,6.654040404040405,6.654040404040405,6.654040404040405,6.654040404040405,6.654040404040405,6.654040404040405,6.654040404040405,6.654040404040405,6.654040404040405,6.654040404040405,6.3129058441558445,6.3129058441558445,6.654040404040405,6.654040404040405,6.654040404040405,6.654040404040405,6.654040404040405,6.654040404040405,7.021416083916084,7.418181818181819,7.021416083916084,7.021416083916084,7.021416083916084,7.021416083916084,4.470779220779222,5.421554252199415,7.021416083916084,7.021416083916084,7.021416083916084,7.021416083916084,7.021416083916084,7.021416083916084,7.021416083916084,7.021416083916084,7.021416083916084,7.021416083916084,7.021416083916084,7.418181818181819,7.418181818181819,7.848011363636364,7.848011363636364,7.848011363636364,7.848011363636364,7.848011363636364,10.675837320574164,9.997159090909092,9.383116883116886,10.675837320574164,10.675837320574164,10.675837320574164,10.675837320574164,10.675837320574164,10.675837320574164,10.675837320574164,10.675837320574164,9.997159090909092,11.429924242424244,11.429924242424244,11.429924242424244,10.675837320574164,11.429924242424244,10.675837320574164,10.675837320574164,10.675837320574164,11.429924242424244,11.429924242424244,10.675837320574164,10.675837320574164,11.429924242424244,11.429924242424244,12.272727272727273,12.272727272727273,11.429924242424244,10.675837320574164,10.675837320574164,12.272727272727273,12.272727272727273,12.272727272727273,12.272727272727273,12.272727272727273,11.429924242424244,12.272727272727273,15.52353896103896,15.52353896103896,15.52353896103896,15.52353896103896,15.52353896103896,14.295454545454547,14.295454545454547,14.295454545454547,40.08522727272728,12.272727272727273,10.675837320574164,10.675837320574164,10.675837320574164,8.824896694214878,8.824896694214878,7.418181818181819,6.654040404040405,6.654040404040405,6.654040404040405,5.995297805642635,5.995297805642635,5.995297805642635,5.161576704545455,5.161576704545455,8.31521739130435,7.848011363636364,7.848011363636364,7.848011363636364,7.848011363636364,7.021416083916084,7.021416083916084,9.383116883116886,7.021416083916084,6.654040404040405,6.654040404040405,9.383116883116886,8.824896694214878,9.383116883116886,8.824896694214878
7.848011363636364,7.848011363636364,7.848011363636364,7.848011363636364,7.848011363636364,7.418181818181819,7.418181818181819,7.418181818181819,7.418181818181819,7.418181818181819,7.418181818181819,7.848011363636364,7.418181818181819,8.31521739130435,8.31521739130435,8.31521739130435,7.848011363636364,7.418181818181819,7.418181818181819,7.418181818181819,7.021416083916084,7.021416083916084,6.654040404040405,6.3129058441558445,5.995297805642635,6.654040404040405,6.654040404040405,6.654040404040405,6.654040404040405,6.654040404040405,7.021416083916084,6.654040404040405,6.654040404040405,6.654040404040405,6.654040404040405,6.654040404040405,7.021416083916084,7.021416083916084,6.654040404040405,7.021416083916084,6.654040404040405,6.654040404040405,6.654040404040405,6.654040404040405,6.654040404040405,7.021416083916084,7.021416083916084,6.654040404040405,6.654040404040405,6.654040404040405,6.654040404040405,6.654040404040405,6.654040404040405,6.654040404040405,5.698863636363637,6.654040404040405,6.654040404040405,6.654040404040405,6.3129058441558445,5.995297805642635,6.654040404040405,6.654040404040405,6.654040404040405,6.654040404040405,6.654040404040405,7.021416083916084,7.021416083916084,7.021416083916084,7.021416083916084,7.021416083916084,4.470779220779222,4.470779220779222,4.687499999999999,7.021416083916084,7.021416083916084,7.021416083916084,7.021416083916084,7.021416083916084,7.021416083916084,7.021416083916084,7.021416083916084,7.021416083916084,7.021416083916084,7.021416083916084,7.418181818181819,7.418181818181819,7.848011363636364,7.848011363636364,7.848011363636364,7.848011363636364,10.675837320574164,10.675837320574164,10.675837320574164,10.675837320574164,10.675837320574164,10.675837320574164,10.675837320574164,10.675837320574164,10.675837320574164,10.675837320574164,10.675837320574164,10.675837320574164,10.675837320574164,11.429924242424244,11.429924242424244,11.429924242424244,11.429924242424244,11.429924242424244,11.429924242424244,11.429924242424244,12.272727272727273,11.429924242424244,10.675837320574164,10.675837320574164,12.272727272727273,11.429924242424244,11.429924242424244,12.272727272727273,11.429924242424244,11.429924242424244,10.675837320574164,12.272727272727273,12.272727272727273,12.272727272727273,12.272727272727273,12.272727272727273,12.272727272727273,12.272727272727273,12.272727272727273,15.52353896103896,14.295454545454547,14.295454545454547,14.295454545454547,14.295454545454547,14.295454545454547,11.429924242424244,11.429924242424244,10.675837320574164,9.997159090909092,10.675837320574164,9.997159090909092,7.848011363636364,7.848011363636364,7.418181818181819,7.418181818181819,7.021416083916084,7.021416083916084,5.995297805642635,5.995297805642635,5.161576704545455,5.161576704545455,5.161576704545455,4.687499999999999,4.687499999999999,4.470779220779222,8.31521739130435,7.848011363636364,7.848011363636364,8.31521739130435,8.31521739130435,7.021416083916084,7.021416083916084,7.021416083916084,6.654040404040405,6.654040404040405,9.383116883116886,9.997159090909092,9.383116883116886
7.848011363636364,7.848011363636364,7.848011363636364,7.848011363636364,7.848011363636364,7.418181818181819,7.418181818181819,7.418181818181819,7.418181818181819,7.418181818181819,7.418181818181819,7.848011363636364,7.418181818181819,8.31521739130435,8.31521739130435,8.31521739130435,7.848011363636364,7.418181818181819,7.418181818181819,7.418181818181819,7.021416083916084,7.021416083916084,6.3129058441558445,6.3129058441558445,6.3129058441558445,5.698863636363637,6.654040404040405,6.654040404040405,6.654040404040405,6.654040404040405,7.021416083916084,6.654040404040405,6.654040404040405,7.021416083916084,6.654040404040405,6.654040404040405,7.021416083916084,7.021416083916084,6.654040404040405,7.021416083916084,6.654040404040405,6.654040404040405,6.654040404040405,6.654040404040405,6.654040404040405,7.021416083916084,6.654040404040405,6.654040404040405,6.654040404040405,6.654040404040405,6.654040404040405,5.698863636363637,5.995297805642635,6.654040404040405,6.654040404040405,6.654040404040405,6.654040404040405,6.3129058441558445,6.3129058441558445,5.995297805642635,5.995297805642635,6.654040404040405,7.021416083916084,6.654040404040405,8.31521739130435,7.021416083916084,7.021416083916084,7.021416083916084,7.021416083916084,7.021416083916084,7.021416083916084,4.470779220779222,7.021416083916084,7.021416083916084,7.021416083916084,7.021416083916084,7.021416083916084,7.021416083916084,7.021416083916084,7.021416083916084,7.021416083916084,7.021416083916084,7.021416083916084,7.021416083916084,7.418181818181819,7.418181818181819,7.848011363636364,7.848011363636364,7.848011363636364,7.848011363636364,10.675837320574164,10.675837320574164,12.272727272727273,10.675837320574164,10.675837320574164,11.429924242424244,11.429924242424244,10.675837320574164,10.675837320574164,10.675837320574164,11.429924242424244,10.675837320574164,10.675837320574164,11.429924242424244,11.429924242424244,10.675837320574164,11.429924242424244,11.429924242424244,11.429924242424244,11.429924242424244,10.675837320574164,11.429924242424244,10.675837320574164,10.675837320574164,12.272727272727273,12.272727272727273,11.429924242424244,12.272727272727273,12.272727272727273,11.429924242424244,13.220880681818183,11.429924242424244,11.429924242424244,11.429924242424244,12.272727272727273,11.429924242424244,12.272727272727273,12.272727272727273,12.272727272727273,15.52353896103896,10.675837320574164,13.220880681818183,13.220880681818183,255.0,14.295454545454547,11.429924242424244,11.429924242424244,10.675837320574164,9.997159090909092,9.997159090909092,8.824896694214878,8.824896694214878,7.848011363636364,7.848011363636364,7.418181818181819,7.021416083916084,7.021416083916084,5.995297805642635,5.995297805642635,5.995297805642635,5.161576704545455,5.161576704545455,4.687499999999999,4.687499999999999,4.470779220779222,7.848011363636364,7.848011363636364,7.418181818181819,7.021416083916084,7.021416083916084,6.654040404040405,7.021416083916084,6.654040404040405,6.3129058441558445,5.995297805642635,9.997159090909092,9.997159090909092,9.383116883116886
7.848011363636364,7.848011363636364,7.848011363636364,7.848011363636364,8.31521739130435,7.418181818181819,7.021416083916084,7.418181818181819,7.418181818181819,7.418181818181819,7.418181818181819,7.848011363636364,8.31521739130435,8.31521739130435,8.31521739130435,8.31521739130435,7.848011363636364,7.418181818181819,7.418181818181819,7.418181818181819,7.021416083916084,7.021416083916084,6.3129058441558445,6.3129058441558445,5.421554252199415,5.698863636363637,6.654040404040405,6.654040404040405,6.654040404040405,6.654040404040405,6.654040404040405,6.654040404040405,6.654040404040405,7.021416083916084,7.021416083916084,7.021416083916084,7.021416083916084,7.021416083916084,6.654040404040405,7.021416083916084,5.995297805642635,6.654040404040405,6.654040404040405,6.654040404040405,6.654040404040405,6.654040404040405,6.654040404040405,6.654040404040405,6.654040404040405,5.421554252199415,6.654040404040405,5.698863636363637,6.654040404040405,6.654040404040405,6.654040404040405,6.654040404040405,6.654040404040405,6.654040404040405,5.995297805642635,5.995297805642635,6.654040404040405,7.021416083916084,7.021416083916084,7.021416083916084,7.021416083916084,7.021416083916084,7.021416083916084,7.021416083916084,7.021416083916084,7.021416083916084,7.021416083916084,6.654040404040405,7.021416083916084,7.021416083916084,7.021416083916084,7.021416083916084,7.021416083916084,7.021416083916084,7.021416083916084,7.021416083916084,7.021416083916084,7.021416083916084,7.021416083916084,7.021416083916084,7.418181818181819,7.848011363636364,7.848011363636364,7.848011363636364,7.848011363636364,7.848011363636364,12.272727272727273,10.675837320574164,12.272727272727273,10.675837320574164,11.429924242424244,11.429924242424244,11.429924242424244,11.429924242424244,11.429924242424244,11.429924242424244,11.429924242424244,11.429924242424244,10.675837320574164,10.675837320574164,11.429924242424244,10.675837320574164,9.997159090909092,11.429924242424244,11.429924242424244,10.675837320574164,10.675837320574164,9.997159090909092,10.675837320574164,13.220880681818183,13.220880681818183,11.429924242424244,11.429924242424244,11.429924242424244,11.429924242424244,11.429924242424244,11.429924242424244,13.220880681818183,13.220880681818183,11.429924242424244,12.272727272727273,11.429924242424244,12.272727272727273,11.429924242424244,12.272727272727273,12.272727272727273,9.383116883116886,10.675837320574164,255.0,255.0,255.0,83.06818181818181,11.429924242424244,11.429924242424244,9.997159090909092,9.997159090909092,8.824896694214878,8.31521739130435,7.848011363636364,7.848011363636364,15.52353896103896,13.220880681818183,13.220880681818183,7.021416083916084,10.675837320574164,9.997159090909092,5.161576704545455,8.824896694214878,8.824896694214878,4.470779220779222,7.848011363636364,7.848011363636364,7.848011363636364,7.418181818181819,8.31521739130435,7.848011363636364,7.848011363636364,7.848011363636364,7.848011363636364,6.3129058441558445,9.383116883116886,7.021416083916084,9.383116883116886,9.383116883116886
7.848011363636364,7.848011363636364,7.848011363636364,8.31521739130435,8.31521739130435,7.418181818181819,7.021416083916084,7.418181818181819,7.418181818181819,7.418181818181819,7.418181818181819,7.418181818181819,7.848011363636364,7.418181818181819,8.31521739130435,8.31521739130435,7.848011363636364,7.418181818181819,7.021416083916084,7.418181818181819,7.021416083916084,7.021416083916084,7.021416083916084,6.3129058441558445,5.421554252199415,5.698863636363637,5.421554252199415,6.654040404040405,6.654040404040405,6.654040404040405,6.654040404040405,6.654040404040405,6.654040404040405,7.021416083916084,7.021416083916084,7.021416083916084,7.021416083916084,7.021416083916084,6.654040404040405,7.021416083916084,6.654040404040405,6.654040404040405,6.654040404040405,6.654040404040405,6.654040404040405,6.654040404040405,6.654040404040405,6.654040404040405,6.654040404040405,6.654040404040405,6.654040404040405,6.3129058441558445,6.3129058441558445,6.654040404040405,6.654040404040405,6.654040404040405,6.654040404040405,6.654040404040405,5.995297805642635,5.995297805642635,6.654040404040405,7.021416083916084,7.021416083916084,7.021416083916084,7.021416083916084,7.021416083916084,7.021416083916084,7.021416083916084,7.021416083916084,7.021416083916084,6.654040404040405,6.654040404040405,6.654040404040405,7.021416083916084,7.021416083916084,7.021416083916084,7.021416083916084,7.021416083916084,7.021416083916084,7.021416083916084,7.021416083916084,7.021416083916084,7.021416083916084,7.021416083916084,7.418181818181819,7.848011363636364,7.848011363636364,7.848011363636364,7.848011363636364,7.848011363636364,12.272727272727273,12.272727272727273,12.272727272727273,12.272727272727273,11.429924242424244,11.429924242424244,11.429924242424244,11.429924242424244,11.429924242424244,11.429924242424244,11.429924242424244,11.429924242424244,10.675837320574164,10.675837320574164,11.429924242424244,10.675837320574164,9.997159090909092,11.429924242424244,10.675837320574164,10.675837320574164,9.997159090909092,9.997159090909092,9.997159090909092,13.220880681818183,13.220880681818183,12.272727272727273,11.429924242424244,10.675837320574164,11.429924242424244,14.295454545454547,14.295454545454547,14.295454545454547,11.429924242424244,12.272727272727273,12.272727272727273,10.675837320574164,15.52353896103896,15.52353896103896,14.295454545454547,10.675837320574164,9.383116883116886,10.675837320574164,9.383116883116886,255.0,9.997159090909092,9.997159090909092,11.429924242424244,11.429924242424244,9.997159090909092,9.997159090909092,9.997159090909092,8.31521739130435,7.848011363636364,10.675837320574164,10.675837320574164,13.220880681818183,10.675837320574164,5.995297805642635,10.675837320574164,8.31521739130435,8.31521739130435,8.31521739130435,8.31521739130435,4.470779220779222,7.848011363636364,7.848011363636364,7.848011363636364,7.418181818181819,8.31521739130435,2.5894584139264993,2.5894584139264993,7.848011363636364,7.021416083916084,7.021416083916084,6.3129058441558445,1.6267942583732056,9.997159090909092,9.383116883116886
8.31521739130435,8.31521739130435,8.31521739130435,8.31521739130435,8.31521739130435,7.848011363636364,7.021416083916084,7.418181818181819,7.418181818181819,7.418181818181819,7.418181818181819,7.418181818181819,7.848011363636364,7.418181818181819,8.31521739130435,8.824896694214878,8.824896694214878,7.418181818181819,7.021416083916084,7.021416083916084,7.021416083916084,7.021416083916084,7.021416083916084,5.995297805642635,5.698863636363637,5.698863636363637,5.421554252199415,6.654040404040405,6.654040404040405,6.654040404040405,6.654040404040405,6.654040404040405,6.654040404040405,7.021416083916084,7.021416083916084,7.021416083916084,7.021416083916084,7.418181818181819,7.418181818181819,7.021416083916084,6.654040404040405,6.654040404040405,6.654040404040405,6.654040404040405,6.654040404040405,6.654040404040405,6.654040404040405,6.654040404040405,6.654040404040405,6.654040404040405,6.654040404040405,6.654040404040405,6.654040404040405,6.654040404040405,6.654040404040405,6.654040404040405,6.654040404040405,6.654040404040405,5.995297805642635,6.654040404040405,6.654040404040405,7.021416083916084,7.021416083916084,7.021416083916084,7.021416083916084,7.021416083916084,7.021416083916084,7.021416083916084,7.021416083916084,7.021416083916084,6.654040404040405,6.654040404040405,6.654040404040405,6.654040404040405,7.021416083916084,7.021416083916084,7.021416083916084,7.021416083916084,7.021416083916084,7.021416083916084,7.021416083916084,7.021416083916084,7.021416083916084,7.021416083916084,7.418181818181819,7.848011363636364,7.848011363636364,7.848011363636364,7.848011363636364,7.848011363636364,11.429924242424244,12.272727272727273,12.272727272727273,11.429924242424244,11.429924242424244,12.272727272727273,11.429924242424244,11.429924242424244,11.429924242424244,11.429924242424244,11.429924242424244,11.429924242424244,10.675837320574164,10.675837320574164,10.675837320574164,10.675837320574164,11.429924242424244,11.429924242424244,11.429924242424244,10.675837320574164,9.997159090909092,9.997159090909092,13.220880681818183,13.220880681818183,13.220880681818183,12.272727272727273,11.429924242424244,10.675837320574164,11.429924242424244,14.295454545454547,13.220880681818183,11.429924242424244,11.429924242424244,12.272727272727273,15.52353896103896,15.52353896103896,15.52353896103896,14.295454545454547,14.295454545454547,12.272727272727273,11.429924242424244,10.675837320574164,9.383116883116886,255.0,126.05113636363637,83.06818181818181,9.997159090909092,9.997159090909092,9.997159090909092,9.997159090909092,9.997159090909092,8.31521739130435,7.848011363636364,10.675837320574164,10.675837320574164,10.675837320574164,12.272727272727273,7.021416083916084,8.31521739130435,6.3129058441558445,7.848011363636364,7.848011363636364,7.848011363636364,9.383116883116886,7.848011363636364,7.848011363636364,9.383116883116886,2.963584710743802,2.5894584139264993,2.5894584139264993,2.5894584139264993,2.3654916512059367,2.3654916512059367,9.997159090909092,9.997159090909092,9.997159090909092,9.997159090909092,9.383116883116886
8.31521739130435,8.31521739130435,8.31521739130435,8.31521739130435,8.31521739130435,7.848011363636364,7.021416083916084,7.418181818181819,7.418181818181819,7.418181818181819,7.418181818181819,7.418181818181819,7.848011363636364,7.418181818181819,9.383116883116886,9.383116883116886,8.824896694214878,7.021416083916084,7.021416083916084,7.021416083916084,7.021416083916084,7.021416083916084,7.021416083916084,5.995297805642635,5.698863636363637,5.698863636363637,5.421554252199415,6.654040404040405,6.654040404040405,6.654040404040405,6.654040404040405,6.654040404040405,6.654040404040405,7.021416083916084,7.021416083916084,7.021416083916084,7.021416083916084,7.418181818181819,7.418181818181819,7.021416083916084,7.021416083916084,6.654040404040405,6.654040404040405,6.654040404040405,6.654040404040405,6.654040404040405,6.654040404040405,6.654040404040405,6.654040404040405,6.654040404040405,6.654040404040405,6.654040404040405,6.654040404040405,6.654040404040405,6.654040404040405,6.654040404040405,6.654040404040405,6.654040404040405,5.698863636363637,6.654040404040405,6.654040404040405,7.021416083916084,7.021416083916084,8.31521739130435,7.021416083916084,7.021416083916084,7.021416083916084,7.021416083916084,7.021416083916084,7.021416083916084,6.654040404040405,6.654040404040405,6.654040404040405,6.654040404040405,7.021416083916084,7.021416083916084,7.021416083916084,7.021416083916084,7.021416083916084,7.021416083916084,7.021416083916084,7.021416083916084,7.021416083916084,7.418181818181819,7.848011363636364,7.848011363636364,7.848011363636364,7.848011363636364,7.848011363636364,7.848011363636364,11.429924242424244,11.429924242424244,12.272727272727273,12.272727272727273,11.429924242424244,12.272727272727273,11.429924242424244,11.429924242424244,11.429924242424244,11.429924242424244,11.429924242424244,10.675837320574164,10.675837320574164,10.675837320574164,10.675837320574164,10.675837320574164,11.429924242424244,10.675837320574164,10.675837320574164,10.675837320574164,9.997159090909092,13.220880681818183,13.220880681818183,13.220880681818183,13.220880681818183,12.272727272727273,11.429924242424244,10.675837320574164,14.295454545454547,14.295454545454547,13.220880681818183,11.429924242424244,11.429924242424244,11.429924242424244,11.429924242424244,10.675837320574164,15.52353896103896,12.272727272727273,13.220880681818183,13.220880681818183,9.383116883116886,9.383116883116886,255.0,255.0,126.05113636363637,83.06818181818181,40.08522727272728,40.08522727272728,40.08522727272728,9.997159090909092,29.339488636363637,8.31521739130435,10.675837320574164,10.675837320574164,10.675837320574164,16.94055944055944,14.295454545454547,11.429924242424244,7.418181818181819,6.3129058441558445,11.429924242424244,6.3129058441558445,9.383116883116886,9.383116883116886,7.848011363636364,7.848011363636364,9.383116883116886,7.418181818181819,2.475142045454546,2.3654916512059367,2.3654916512059367,2.3654916512059367,9.997159090909092,9.997159090909092,9.997159090909092,9.997159090909092,9.997159090909092,9.383116883116886
8.31521739130435,8.31521739130435,8.31521739130435,8.824896694214878,8.31521739130435,7.848011363636364,7.418181818181819,7.418181818181819,7.418181818181819,7.418181818181819,7.418181818181819,7.418181818181819,7.848011363636364,7.418181818181819,9.383116883116886,9.383116883116886,7.021416083916084,7.021416083916084,7.021416083916084,7.021416083916084,7.418181818181819,7.021416083916084,7.021416083916084,5.995297805642635,5.995297805642635,5.698863636363637,6.654040404040405,6.654040404040405,6.654040404040405,6.654040404040405,6.654040404040405,6.654040404040405,6.654040404040405,7.021416083916084,7.021416083916084,7.021416083916084,7.021416083916084,7.848011363636364,7.418181818181819,7.021416083916084,7.021416083916084,6.654040404040405,6.654040404040405,6.654040404040405,6.654040404040405,6.654040404040405,6.654040404040405,7.021416083916084,6.654040404040405,6.654040404040405,6.654040404040405,6.654040404040405,6.654040404040405,6.654040404040405,6.654040404040405,6.654040404040405,6.654040404040405,6.654040404040405,6.654040404040405,6.654040404040405,7.021416083916084,7.021416083916084,7.021416083916084,7.021416083916084,7.021416083916084,7.021416083916084,7.021416083916084,7.021416083916084,7.021416083916084,7.021416083916084,6.654040404040405,6.654040404040405,6.654040404040405,6.654040404040405,6.654040404040405,7.021416083916084,7.021416083916084,7.021416083916084,7.021416083916084,7.021416083916084,7.418181818181819,7.021416083916084,7.418181818181819,7.418181818181819,7.848011363636364,7.848011363636364,7.848011363636364,7.848011363636364,7.848011363636364,11.429924242424244,11.429924242424244,11.429924242424244,11.429924242424244,8.31521739130435,11.429924242424244,11.429924242424244,11.429924242424244,11.429924242424244,11.429924242424244,11.429924242424244,10.675837320574164,10.675837320574164,10.675837320574164,10.675837320574164,10.675837320574164,10.675837320574164,11.429924242424244,11.429924242424244,10.675837320574164,11.429924242424244,13.220880681818183,13.220880681818183,13.220880681818183,13.220880681818183,12.272727272727273,11.429924242424244,10.675837320574164,10.675837320574164,9.997159090909092,13.220880681818183,13.220880681818183,12.272727272727273,11.429924242424244,11.429924242424244,10.675837320574164,10.675837320574164,14.295454545454547,12.272727272727273,11.429924242424244,13.220880681818183,255.0,10.675837320574164,255.0,255.0,9.997159090909092,9.997159090909092,9.997159090909092,40.08522727272728,40.08522727272728,11.429924242424244,29.339488636363637,10.675837320574164,10.675837320574164,10.675837320574164,10.675837320574164,16.94055944055944,15.52353896103896,11.429924242424244,13.220880681818183,6.3129058441558445,6.654040404040405,6.3129058441558445,9.997159090909092,9.383116883116886,9.383116883116886,9.997159090909092,9.383116883116886,9.383116883116886,9.383116883116886,9.383116883116886,7.848011363636364,7.418181818181819,9.997159090909092,10.675837320574164,9.997159090909092,9.997159090909092,9.383116883116886,8.824896694214878
7.848011363636364,8.31521739130435,8.824896694214878,8.31521739130435,8.31521739130435,8.31521739130435,7.848011363636364,7.418181818181819,7.418181818181819,7.418181818181819,7.418181818181819,7.418181818181819,7.418181818181819,7.418181818181819,7.418181818181819,7.021416083916084,7.021416083916084,7.021416083916084,7.021416083916084,7.021416083916084,7.418181818181819,7.021416083916084,7.021416083916084,6.654040404040405,6.654040404040405,5.698863636363637,6.654040404040405,6.654040404040405,6.654040404040405,6.654040404040405,6.654040404040405,6.654040404040405,6.654040404040405,6.654040404040405,6.654040404040405,7.021416083916084,6.654040404040405,7.848011363636364,7.418181818181819,7.021416083916084,7.021416083916084,6.654040404040405,6.654040404040405,6.654040404040405,6.654040404040405,6.654040404040405,6.654040404040405,6.654040404040405,6.654040404040405,6.654040404040405,6.654040404040405,6.654040404040405,6.654040404040405,6.654040404040405,6.654040404040405,6.654040404040405,6.654040404040405,6.654040404040405,6.654040404040405,7.021416083916084,7.021416083916084,7.021416083916084,7.021416083916084,7.021416083916084,7.021416083916084,7.021416083916084,7.021416083916084,7.021416083916084,7.021416083916084,7.021416083916084,7.021416083916084,7.021416083916084,7.021416083916084,6.654040404040405,7.021416083916084,7.021416083916084,7.021416083916084,7.021416083916084,7.021416083916084,7.418181818181819,7.418181818181819,7.021416083916084,7.418181818181819,7.418181818181819,7.848011363636364,7.848011363636364,7.848011363636364,7.848011363636364,7.848011363636364,11.429924242424244,11.429924242424244,9.383116883116886,8.31521739130435,8.31521739130435,7.848011363636364,8.824896694214878,11.429924242424244,11.429924242424244,11.429924242424244,10.675837320574164,10.675837320574164,10.675837320574164,10.675837320574164,10.675837320574164,10.675837320574164,10.675837320574164,10.675837320574164,10.675837320574164,10.675837320574164,10.675837320574164,13.220880681818183,13.220880681818183,13.220880681818183,13.220880681818183,12.272727272727273,12.272727272727273,10.675837320574164,10.675837320574164,13.220880681818183,13.220880681818183,13.220880681818183,12.272727272727273,11.429924242424244,11.429924242424244,10.675837320574164,10.675837320574164,13.220880681818183,13.220880681818183,11.429924242424244,13.220880681818183,13.220880681818183,13.220880681818183,255.0,9.997159090909092,9.997159090909092,9.997159090909092,9.997159090909092,9.997159090909092,9.997159090909092,9.997159090909092,9.997159090909092,9.997159090909092,9.997159090909092,9.997159090909092,9.997159090909092,9.383116883116886,8.824896694214878,8.31521739130435,6.3129058441558445,6.3129058441558445,5.421554252199415,9.383116883116886,9.997159090909092,9.383116883116886,9.383116883116886,9.997159090909092,9.383116883116886,9.383116883116886,9.383116883116886,2.475142045454546,7.021416083916084,7.418181818181819,9.997159090909092,9.997159090909092,9.997159090909092,9.997159090909092,9.383116883116886,8.824896694214878
7.848011363636364,8.31521739130435,8.824896694214878,8.824896694214878,8.824896694214878,8.31521739130435,7.848011363636364,7.021416083916084,7.418181818181819,7.418181818181819,7.418181818181819,7.418181818181819,7.418181818181819,7.418181818181819,7.418181818181819,7.418181818181819,7.021416083916084,7.021416083916084,7.021416083916084,7.021416083916084,7.021416083916084,7.021416083916084,7.021416083916084,6.654040404040405,6.654040404040405,5.698863636363637,6.654040404040405,6.654040404040405,6.654040404040405,6.654040404040405,6.654040404040405,7.021416083916084,6.654040404040405,6.654040404040405,6.654040404040405,6.654040404040405,6.654040404040405,7.848011363636364,7.021416083916084,7.021416083916084,7.021416083916084,6.654040404040405,6.654040404040405,6.654040404040405,6.654040404040405,6.654040404040405,6.654040404040405,6.654040404040405,6.654040404040405,6.654040404040405,6.654040404040405,6.654040404040405,6.654040404040405,6.654040404040405,6.654040404040405,6.654040404040405,7.021416083916084,6.654040404040405,6.654040404040405,7.021416083916084,7.021416083916084,7.021416083916084,7.021416083916084,7.021416083916084,7.021416083916084,7.021416083916084,7.021416083916084,7.021416083916084,7.021416083916084,7.021416083916084,7.021416083916084,7.021416083916084,7.021416083916084,7.021416083916084,7.021416083916084,7.021416083916084,7.021416083916084,7.021416083916084,7.021416083916084,7.021416083916084,7.021416083916084,7.021416083916084,7.418181818181819,7.418181818181819,7.848011363636364,7.848011363636364,7.848011363636364,7.848011363636364,7.848011363636364,11.429924242424244,9.997159090909092,9.383116883116886,9.383116883116886,8.31521739130435,8.31521739130435,8.824896694214878,12.272727272727273,11.429924242424244,11.429924242424244,12.272727272727273,11.429924242424244,10.675837320574164,10.675837320574164,10.675837320574164,10.675837320574164,10.675837320574164,11.429924242424244,11.429924242424244,12.272727272727273,11.429924242424244,13.220880681818183,13.220880681818183,13.220880681818183,13.220880681818183,12.272727272727273,11.429924242424244,10.675837320574164,10.675837320574164,10.675837320574164,12.272727272727273,12.272727272727273,12.272727272727273,11.429924242424244,11.429924242424244,10.675837320574164,10.675837320574164,13.220880681818183,13.220880681818183,14.295454545454547,13.220880681818183,13.220880681818183,13.220880681818183,13.220880681818183,83.06818181818181,12.272727272727273,10.675837320574164,10.675837320574164,9.997159090909092,9.997159090909092,9.997159090909092,9.997159090909092,9.997159090909092,9.997159090909092,9.997159090909092,9.997159090909092,9.383116883116886,8.824896694214878,8.31521739130435,6.3129058441558445,6.3129058441558445,9.383116883116886,9.383116883116886,9.997159090909092,9.383116883116886,9.383116883116886,3.2426948051948057,9.383116883116886,9.383116883116886,2.833333333333333,10.675837320574164,10.675837320574164,9.997159090909092,9.997159090909092,9.997159090909092,9.997159090909092,9.997159090909092,1.3301043219076008,1.2619134897360706
7.848011363636364,8.31521739130435,8.31521739130435,8.31521739130435,8.31521739130435,8.31521739130435,7.848011363636364,7.418181818181819,7.418181818181819,7.418181818181819,7.418181818181819,7.418181818181819,7.418181818181819,7.418181818181819,7.418181818181819,7.418181818181819,7.021416083916084,7.021416083916084,7.021416083916084,7.021416083916084,7.021416083916084,7.021416083916084,7.021416083916084,7.021416083916084,6.654040404040405,6.654040404040405,6.654040404040405,6.654040404040405,6.654040404040405,6.654040404040405,6.654040404040405,6.654040404040405,6.654040404040405,6.654040404040405,6.654040404040405,6.654040404040405,6.654040404040405,7.848011363636364,7.021416083916084,7.021416083916084,6.654040404040405,6.654040404040405,6.654040404040405,6.654040404040405,6.654040404040405,6.654040404040405,6.654040404040405,6.654040404040405,6.654040404040405,6.654040404040405,6.654040404040405,6.654040404040405,7.021416083916084,6.654040404040405,6.654040404040405,7.021416083916084,7.021416083916084,6.654040404040405,6.654040404040405,7.021416083916084,7.021416083916084,7.021416083916084,7.021416083916084,7.021416083916084,7.021416083916084,7.021416083916084,7.021416083916084,7.021416083916084,7.021416083916084,7.021416083916084,7.021416083916084,7.021416083916084,7.021416083916084,7.021416083916084,7.021416083916084,7.021416083916084,7.021416083916084,7.021416083916084,7.021416083916084,7.021416083916084,7.021416083916084,7.418181818181819,7.418181818181819,7.848011363636364,7.848011363636364,7.848011363636364,7.848011363636364,7.848011363636364,10.675837320574164,9.997159090909092,9.997159090909092,9.997159090909092,9.383116883116886,9.383116883116886,9.383116883116886,7.848011363636364,12.272727272727273,12.272727272727273,11.429924242424244,9.997159090909092,9.997159090909092,10.675837320574164,10.675837320574164,11.429924242424244,10.675837320574164,10.675837320574164,12.272727272727273,12.272727272727273,12.272727272727273,13.220880681818183,12.272727272727273,12.272727272727273,13.220880681818183,13.220880681818183,12.272727272727273,11.429924242424244,10.675837320574164,10.675837320574164,10.675837320574164,15.52353896103896,14.295454545454547,12.272727272727273,12.272727272727273,11.429924242424244,10.675837320574164,10.675837320574164,10.675837320574164,15.52353896103896,14.295454545454547,14.295454545454547,13.220880681818183,15.52353896103896,13.220880681818183,10.675837320574164,12.272727272727273,10.675837320574164,10.675837320574164,9.997159090909092,9.997159090909092,9.383116883116886,9.997159090909092,9.383116883116886,9.383116883116886,10.675837320574164,9.997159090909092,9.997159090909092,9.997159090909092,9.997159090909092,9.383116883116886,9.997159090909092,9.383116883116886,9.383116883116886,9.997159090909092,9.383116883116886,3.5497159090909096,3.5497159090909096,2.833333333333333,9.383116883116886,2.833333333333333,2.7087450592885376,9.383116883116886,7.418181818181819,2.3654916512059367,6.654040404040405,6.654040404040405,8.31521739130435,1.3301043219076008,1.2619134897360706
8.31521739130435,8.31521739130435,8.31521739130435,8.31521739130435,8.31521739130435,8.31521739130435,8.31521739130435,4.917355371900826,7.418181818181819,7.418181818181819,7.418181818181819,7.418181818181819,7.418181818181819,7.418181818181819,7.418181818181819,7.418181818181819,7.021416083916084,7.021416083916084,7.021416083916084,7.021416083916084,7.021416083916084,7.021416083916084,7.021416083916084,7.021416083916084,6.654040404040405,6.654040404040405,6.654040404040405,6.654040404040405,6.654040404040405,6.654040404040405,6.654040404040405,6.654040404040405,6.654040404040405,6.654040404040405,6.654040404040405,6.654040404040405,6.654040404040405,7.848011363636364,7.021416083916084,7.021416083916084,6.654040404040405,6.654040404040405,6.654040404040405,6.654040404040405,6.654040404040405,6.654040404040405,6.654040404040405,6.654040404040405,6.654040404040405,6.654040404040405,6.654040404040405,6.654040404040405,7.021416083916084,7.021416083916084,6.654040404040405,7.021416083916084,7.021416083916084,6.654040404040405,6.654040404040405,6.654040404040405,6.654040404040405,6.654040404040405,7.021416083916084,7.021416083916084,7.021416083916084,7.021416083916084,7.021416083916084,7.021416083916084,7.021416083916084,7.021416083916084,7.021416083916084,7.021416083916084,7.021416083916084,7.021416083916084,7.021416083916084,7.021416083916084,7.021416083916084,7.021416083916084,7.021416083916084,7.021416083916084,7.021416083916084,7.418181818181819,7.418181818181819,7.848011363636364,7.848011363636364,7.848011363636364,7.848011363636364,7.848011363636364,11.429924242424244,11.429924242424244,11.429924242424244,9.997159090909092,9.997159090909092,9.997159090909092,9.383116883116886,9.383116883116886,15.52353896103896,14.295454545454547,7.418181818181819,12.272727272727273,12.272727272727273,10.675837320574164,10.675837320574164,11.429924242424244,10.675837320574164,10.675837320574164,10.675837320574164,10.675837320574164,10.675837320574164,10.675837320574164,10.675837320574164,11.429924242424244,13.220880681818183,12.272727272727273,12.272727272727273,11.429924242424244,10.675837320574164,10.675837320574164,10.675837320574164,15.52353896103896,14.295454545454547,14.295454545454547,12.272727272727273,11.429924242424244,10.675837320574164,10.675837320574164,10.675837320574164,15.52353896103896,14.295454545454547,13.220880681818183,13.220880681818183,10.675837320574164,10.675837320574164,9.997159090909092,9.997159090909092,9.997159090909092,9.997159090909092,9.997159090909092,9.997159090909092,9.997159090909092,9.997159090909092,11.429924242424244,11.429924242424244,10.675837320574164,9.997159090909092,9.997159090909092,9.997159090909092,9.997159090909092,9.997159090909092,9.997159090909092,9.997159090909092,9.997159090909092,9.997159090909092,9.997159090909092,3.5497159090909096,3.2426948051948057,3.2426948051948057,9.383116883116886,9.383116883116886,9.383116883116886,10.675837320574164,10.675837320574164,9.383116883116886,1.5487852664576809,6.654040404040405,1.4005681818181819,1.3301043219076008,11.429924242424244
8.31521739130435,8.31521739130435,8.31521739130435,8.31521739130435,8.31521739130435,8.31521739130435,8.31521739130435,4.917355371900826,7.418181818181819,7.418181818181819,7.418181818181819,7.418181818181819,7.418181818181819,7.418181818181819,7.418181818181819,7.418181818181819,7.418181818181819,7.021416083916084,7.021416083916084,7.021416083916084,7.021416083916084,7.021416083916084,7.021416083916084,7.021416083916084,6.654040404040405,6.654040404040405,6.654040404040405,6.3129058441558445,6.654040404040405,6.3129058441558445,6.654040404040405,6.3129058441558445,6.654040404040405,6.654040404040405,6.654040404040405,6.654040404040405,6.654040404040405,6.654040404040405,7.021416083916084,6.654040404040405,6.654040404040405,6.654040404040405,6.654040404040405,6.654040404040405,6.654040404040405,6.3129058441558445,6.3129058441558445,6.3129058441558445,6.3129058441558445,6.654040404040405,6.654040404040405,7.021416083916084,7.021416083916084,7.021416083916084,7.021416083916084,7.021416083916084,7.021416083916084,6.654040404040405,6.654040404040405,6.654040404040405,6.654040404040405,6.654040404040405,6.3129058441558445,6.3129058441558445,7.021416083916084,7.021416083916084,7.021416083916084,7.021416083916084,7.021416083916084,7.021416083916084,7.021416083916084,7.021416083916084,7.021416083916084,7.021416083916084,7.021416083916084,7.021416083916084,7.021416083916084,7.021416083916084,7.021416083916084,7.021416083916084,7.418181818181819,7.418181818181819,7.418181818181819,7.848011363636364,7.848011363636364,7.848011363636364,7.848011363636364,12.272727272727273,11.429924242424244,11.429924242424244,11.429924242424244,11.429924242424244,11.429924242424244,9.997159090909092,9.383116883116886,15.52353896103896,15.52353896103896,12.272727272727273,8.824896694214878,7.418181818181819,12.272727272727273,11.429924242424244,9.997159090909092,11.429924242424244,11.429924242424244,10.675837320574164,10.675837320574164,10.675837320574164,10.675837320574164,10.675837320574164,10.675837320574164,11.429924242424244,11.429924242424244,13.220880681818183,12.272727272727273,11.429924242424244,11.429924242424244,10.675837320574164,10.675837320574164,15.52353896103896,14.295454545454547,14.295454545454547,14.295454545454547,11.429924242424244,10.675837320574164,10.675837320574164,10.675837320574164,14.295454545454547,14.295454545454547,13.220880681818183,13.220880681818183,13.220880681818183,12.272727272727273,11.429924242424244,9.997159090909092,10.675837320574164,9.997159090909092,9.997159090909092,9.997159090909092,9.997159090909092,9.997159090909092,11.429924242424244,11.429924242424244,10.675837320574164,9.997159090909092,9.997159090909092,9.997159090909092,9.997159090909092,9.997159090909092,9.997159090909092,9.997159090909092,10.675837320574164,9.997159090909092,9.997159090909092,3.5497159090909096,3.5497159090909096,3.2426948051948057,9.383116883116886,8.824896694214878,9.997159090909092,10.675837320574164,9.997159090909092,9.997159090909092,1.7913223140495873,1.5487852664576809,10.675837320574164,10.675837320574164,10.675837320574164
8.31521739130435,8.31521739130435,8.31521739130435,8.31521739130435,8.31521739130435,8.31521739130435,8.31521739130435,5.161576704545455,4.687499999999999,7.418181818181819,7.418181818181819,7.418181818181819,7.418181818181819,7.418181818181819,7.848011363636364,7.418181818181819,7.418181818181819,7.021416083916084,7.021416083916084,7.021416083916084,7.021416083916084,7.021416083916084,7.021416083916084,7.021416083916084,6.654040404040405,6.654040404040405,6.654040404040405,5.698863636363637,6.654040404040405,6.654040404040405,6.654040404040405,6.3129058441558445,6.654040404040405,6.654040404040405,6.654040404040405,6.654040404040405,6.654040404040405,6.654040404040405,6.654040404040405,6.654040404040405,6.654040404040405,6.654040404040405,6.654040404040405,6.654040404040405,6.3129058441558445,6.3129058441558445,6.3129058441558445,6.3129058441558445,6.3129058441558445,6.654040404040405,6.654040404040405,7.021416083916084,7.021416083916084,7.021416083916084,7.021416083916084,7.021416083916084,7.021416083916084,6.654040404040405,6.654040404040405,6.654040404040405,6.654040404040405,6.654040404040405,6.654040404040405,7.021416083916084,7.021416083916084,7.021416083916084,7.021416083916084,7.021416083916084,7.021416083916084,7.021416083916084,7.021416083916084,7.021416083916084,7.021416083916084,7.021416083916084,7.021416083916084,7.021416083916084,7.021416083916084,7.021416083916084,7.021416083916084,7.021416083916084,7.418181818181819,7.418181818181819,7.418181818181819,7.848011363636364,7.848011363636364,7.848011363636364,7.848011363636364,12.272727272727273,12.272727272727273,11.429924242424244,11.429924242424244,11.429924242424244,11.429924242424244,11.429924242424244,11.429924242424244,11.429924242424244,11.429924242424244,11.429924242424244,8.824896694214878,8.824896694214878,9.997159090909092,9.997159090909092,9.997159090909092,11.429924242424244,11.429924242424244,11.429924242424244,11.429924242424244,11.429924242424244,10.675837320574164,10.675837320574164,11.429924242424244,11.429924242424244,12.272727272727273,11.429924242424244,11.429924242424244,11.429924242424244,10.675837320574164,10.675837320574164,10.675837320574164,10.675837320574164,12.272727272727273,14.295454545454547,14.295454545454547,13.220880681818183,10.675837320574164,9.997159090909092,9.997159090909092,9.997159090909092,14.295454545454547,13.220880681818183,13.220880681818183,11.429924242424244,11.429924242424244,11.429924242424244,9.997159090909092,9.997159090909092,9.997159090909092,8.824896694214878,15.52353896103896,15.52353896103896,14.295454545454547,12.272727272727273,11.429924242424244,10.675837320574164,10.675837320574164,9.997159090909092,9.383116883116886,9.997159090909092,9.997159090909092,9.997159090909092,9.997159090909092,10.675837320574164,10.675837320574164,3.5497159090909096,3.3924611973392467,3.5497159090909096,9.997159090909092,9.383116883116886,8.824896694214878,8.31521739130435,1.8781565656565657,1.8781565656565657,1.7075892857142854,1.6267942583732056,9.383116883116886,10.675837320574164,10.675837320574164,10.675837320574164
8.31521739130435,8.31521739130435,8.31521739130435,8.31521739130435,8.31521739130435,8.31521739130435,8.31521739130435,4.917355371900826,4.917355371900826,7.418181818181819,7.418181818181819,7.418181818181819,7.418181818181819,7.418181818181819,7.418181818181819,7.418181818181819,10.675837320574164,10.675837320574164,9.997159090909092,7.021416083916084,7.021416083916084,7.021416083916084,7.021416083916084,7.021416083916084,6.654040404040405,6.654040404040405,6.654040404040405,5.995297805642635,6.3129058441558445,6.654040404040405,6.654040404040405,6.3129058441558445,6.654040404040405,6.654040404040405,6.654040404040405,6.654040404040405,6.654040404040405,6.654040404040405,5.995297805642635,6.654040404040405,6.3129058441558445,5.698863636363637,5.698863636363637,6.3129058441558445,6.3129058441558445,6.3129058441558445,6.3129058441558445,6.3129058441558445,6.3129058441558445,6.654040404040405,6.654040404040405,7.021416083916084,7.021416083916084,7.021416083916084,7.021416083916084,7.021416083916084,7.021416083916084,7.021416083916084,7.021416083916084,7.021416083916084,7.021416083916084,7.021416083916084,7.021416083916084,7.021416083916084,7.021416083916084,7.021416083916084,7.021416083916084,7.021416083916084,7.021416083916084,7.021416083916084,7.021416083916084,7.021416083916084,7.021416083916084,7.021416083916084,7.021416083916084,7.021416083916084,7.021416083916084,7.021416083916084,7.021416083916084,7.021416083916084,7.418181818181819,7.418181818181819,7.418181818181819,7.848011363636364,7.848011363636364,7.848011363636364,7.848011363636364,12.272727272727273,12.272727272727273,11.429924242424244,11.429924242424244,11.429924242424244,11.429924242424244,11.429924242424244,11.429924242424244,11.429924242424244,11.429924242424244,11.429924242424244,10.675837320574164,10.675837320574164,9.383116883116886,9.997159090909092,10.675837320574164,11.429924242424244,10.675837320574164,10.675837320574164,10.675837320574164,10.675837320574164,10.675837320574164,10.675837320574164,11.429924242424244,11.429924242424244,12.272727272727273,11.429924242424244,12.272727272727273,12.272727272727273,10.675837320574164,12.272727272727273,12.272727272727273,10.675837320574164,12.272727272727273,14.295454545454547,13.220880681818183,14.295454545454547,14.295454545454547,9.997159090909092,9.997159090909092,14.295454545454547,13.220880681818183,12.272727272727273,11.429924242424244,13.220880681818183,13.220880681818183,11.429924242424244,9.997159090909092,9.997159090909092,9.383116883116886,8.824896694214878,15.52353896103896,15.52353896103896,16.94055944055944,11.429924242424244,11.429924242424244,11.429924242424244,11.429924242424244,10.675837320574164,8.824896694214878,9.997159090909092,9.997159090909092,9.997159090909092,9.997159090909092,10.675837320574164,10.675837320574164,3.5497159090909096,10.675837320574164,9.383116883116886,9.383116883116886,9.383116883116886,8.824896694214878,8.31521739130435,1.8781565656565657,1.7913223140495873,1.7075892857142854,1.3301043219076008,1.4734206471494609,1.131924715909091,1.131924715909091,1.0098140495867771
8.31521739130435,8.31521739130435,8.31521739130435,8.31521739130435,8.824896694214878,8.824896694214878,8.31521739130435,8.31521739130435,4.072481572481573,6.654040404040405,7.418181818181819,7.418181818181819,7.418181818181819,7.418181818181819,7.418181818181819,7.418181818181819,10.675837320574164,10.675837320574164,9.997159090909092,7.021416083916084,7.021416083916084,7.021416083916084,7.021416083916084,7.021416083916084,7.021416083916084,6.654040404040405,6.654040404040405,5.995297805642635,6.3129058441558445,6.654040404040405,6.654040404040405,7.021416083916084,6.654040404040405,6.654040404040405,7.021416083916084,6.654040404040405,6.654040404040405,6.654040404040405,5.698863636363637,6.654040404040405,6.3129058441558445,5.698863636363637,5.698863636363637,5.698863636363637,5.698863636363637,5.995297805642635,6.654040404040405,6.654040404040405,6.654040404040405,6.654040404040405,6.654040404040405,7.021416083916084,7.021416083916084,7.021416083916084,7.021416083916084,7.021416083916084,7.021416083916084,7.021416083916084,7.021416083916084,7.021416083916084,7.021416083916084,7.021416083916084,7.021416083916084,7.021416083916084,7.021416083916084,7.021416083916084,7.021416083916084,7.021416083916084,7.021416083916084,7.021416083916084,7.021416083916084,7.021416083916084,7.021416083916084,7.021416083916084,7.021416083916084,7.021416083916084,7.021416083916084,7.021416083916084,7.021416083916084,7.021416083916084,7.418181818181819,7.418181818181819,7.848011363636364,7.848011363636364,7.848011363636364,7.848011363636364,13.220880681818183,12.272727272727273,12.272727272727273,11.429924242424244,11.429924242424244,11.429924242424244,11.429924242424244,11.429924242424244,11.429924242424244,11.429924242424244,11.429924242424244,11.429924242424244,11.429924242424244,11.429924242424244,11.429924242424244,11.429924242424244,12.272727272727273,11.429924242424244,11.429924242424244,11.429924242424244,10.675837320574164,10.675837320574164,10.675837320574164,10.675837320574164,10.675837320574164,11.429924242424244,12.272727272727273,12.272727272727273,12.272727272727273,12.272727272727273,12.272727272727273,12.272727272727273,12.272727272727273,13.220880681818183,12.272727272727273,14.295454545454547,14.295454545454547,14.295454545454547,14.295454545454547,13.220880681818183,12.272727272727273,12.272727272727273,12.272727272727273,12.272727272727273,11.429924242424244,13.220880681818183,11.429924242424244,11.429924242424244,10.675837320574164,10.675837320574164,18.59375,8.824896694214878,15.52353896103896,18.59375,13.220880681818183,12.272727272727273,11.429924242424244,10.675837320574164,10.675837320574164,9.383116883116886,8.824896694214878,8.31521739130435,8.31521739130435,9.997159090909092,9.997159090909092,9.997159090909092,9.997159090909092,3.8890550239234454,3.8890550239234454,9.997159090909092,9.997159090909092,9.997159090909092,9.997159090909092,8.31521739130435,2.0618444055944054,1.8781565656565657,1.4734206471494609,1.3301043219076008,1.2619134897360706,1.131924715909091,1.131924715909091,12.272727272727273
8.31521739130435,8.824896694214878,8.824896694214878,8.824896694214878,8.824896694214878,8.824896694214878,8.824896694214878,8.31521739130435,6.654040404040405,6.654040404040405,7.848011363636364,7.848011363636364,7.848011363636364,7.848011363636364,7.848011363636364,7.418181818181819,7.418181818181819,8.824896694214878,8.31521739130435,7.418181818181819,7.021416083916084,7.021416083916084,7.021416083916084,7.021416083916084,7.021416083916084,6.654040404040405,6.654040404040405,6.654040404040405,6.654040404040405,6.654040404040405,7.021416083916084,7.021416083916084,6.654040404040405,6.654040404040405,7.021416083916084,6.654040404040405,6.654040404040405,6.654040404040405,5.995297805642635,6.654040404040405,6.3129058441558445,5.698863636363637,5.698863636363637,5.698863636363637,5.698863636363637,5.995297805642635,6.654040404040405,6.654040404040405,6.654040404040405,6.654040404040405,6.654040404040405,7.021416083916084,6.654040404040405,7.021416083916084,7.021416083916084,7.021416083916084,7.021416083916084,7.021416083916084,7.021416083916084,7.021416083916084,7.021416083916084,7.021416083916084,7.021416083916084,7.021416083916084,7.021416083916084,7.021416083916084,7.021416083916084,7.021416083916084,7.021416083916084,7.021416083916084,7.021416083916084,7.021416083916084,7.021416083916084,7.021416083916084,7.021416083916084,7.021416083916084,7.021416083916084,7.021416083916084,7.021416083916084,7.418181818181819,7.418181818181819,7.418181818181819,7.848011363636364,7.848011363636364,7.848011363636364,7.848011363636364,13.220880681818183,12.272727272727273,12.272727272727273,12.272727272727273,11.429924242424244,11.429924242424244,11.429924242424244,11.429924242424244,11.429924242424244,11.429924242424244,11.429924242424244,11.429924242424244,12.272727272727273,12.272727272727273,12.272727272727273,12.272727272727273,12.272727272727273,12.272727272727273,11.429924242424244,11.429924242424244,11.429924242424244,10.675837320574164,10.675837320574164,10.675837320574164,12.272727272727273,12.272727272727273,12.272727272727273,12.272727272727273,12.272727272727273,10.675837320574164,12.272727272727273,12.272727272727273,12.272727272727273,13.220880681818183,13.220880681818183,13.220880681818183,13.220880681818183,14.295454545454547,14.295454545454547,14.295454545454547,12.272727272727273,12.272727272727273,12.272727272727273,12.272727272727273,12.272727272727273,12.272727272727273,12.272727272727273,25.757575757575758,25.757575757575758,25.757575757575758,18.59375,18.59375,18.59375,18.59375,13.220880681818183,12.272727272727273,11.429924242424244,10.675837320574164,6.3129058441558445,9.383116883116886,8.824896694214878,8.31521739130435,4.470779220779222,4.266098484848485,4.266098484848485,10.675837320574164,4.072481572481573,9.383116883116886,9.383116883116886,9.997159090909092,9.383116883116886,8.31521739130435,8.31521739130435,8.31521739130435,1.7913223140495873,7.418181818181819,7.418181818181819,1.3301043219076008,8.824896694214878,12.272727272727273,12.272727272727273,12.272727272727273
8.824896694214878,8.824896694214878,8.824896694214878,8.824896694214878,8.824896694214878,8.824896694214878,8.824896694214878,8.31521739130435,6.654040404040405,7.848011363636364,7.848011363636364,7.848011363636364,7.848011363636364,7.848011363636364,7.848011363636364,7.418181818181819,7.418181818181819,8.31521739130435,8.31521739130435,7.418181818181819,7.418181818181819,7.021416083916084,7.021416083916084,7.021416083916084,7.021416083916084,7.021416083916084,6.654040404040405,7.021416083916084,6.654040404040405,6.654040404040405,6.654040404040405,7.021416083916084,6.654040404040405,6.654040404040405,7.021416083916084,6.654040404040405,6.654040404040405,7.021416083916084,5.995297805642635,6.654040404040405,6.654040404040405,6.654040404040405,5.698863636363637,6.3129058441558445,6.3129058441558445,5.995297805642635,6.654040404040405,6.654040404040405,6.654040404040405,6.654040404040405,7.021416083916084,7.021416083916084,7.021416083916084,7.021416083916084,7.021416083916084,6.654040404040405,7.021416083916084,7.021416083916084,7.021416083916084,7.021416083916084,7.021416083916084,7.021416083916084,7.021416083916084,7.021416083916084,7.021416083916084,7.021416083916084,7.021416083916084,7.021416083916084,7.021416083916084,7.021416083916084,7.021416083916084,7.021416083916084,7.021416083916084,7.021416083916084,7.021416083916084,7.021416083916084,7.021416083916084,7.021416083916084,7.021416083916084,7.418181818181819,7.418181818181819,7.418181818181819,7.418181818181819,7.848011363636364,7.848011363636364,7.848011363636364,13.220880681818183,12.272727272727273,12.272727272727273,12.272727272727273,11.429924242424244,11.429924242424244,11.429924242424244,11.429924242424244,11.429924242424244,11.429924242424244,11.429924242424244,12.272727272727273,12.272727272727273,12.272727272727273,12.272727272727273,12.272727272727273,12.272727272727273,12.272727272727273,11.429924242424244,11.429924242424244,11.429924242424244,11.429924242424244,10.675837320574164,10.675837320574164,12.272727272727273,12.272727272727273,12.272727272727273,12.272727272727273,12.272727272727273,10.675837320574164,10.675837320574164,10.675837320574164,10.675837320574164,10.675837320574164,10.675837320574164,10.675837320574164,10.675837320574164,10.675837320574164,14.295454545454547,14.295454545454547,15.52353896103896,12.272727272727273,12.272727272727273,12.272727272727273,11.429924242424244,12.272727272727273,25.757575757575758,25.757575757575758,25.757575757575758,18.59375,18.59375,18.59375,18.59375,18.59375,15.52353896103896,14.295454545454547,7.418181818181819,7.418181818181819,8.824896694214878,8.824896694214878,8.824896694214878,8.31521739130435,7.848011363636364,7.418181818181819,8.31521739130435,8.31521739130435,8.31521739130435,8.31521739130435,3.2426948051948057,2.963584710743802,7.848011363636364,8.31521739130435,8.31521739130435,8.31521739130435,1.4734206471494609,11.429924242424244,11.429924242424244,1.3301043219076008,12.272727272727273,12.272727272727273,12.272727272727273,12.272727272727273
8.824896694214878,8.824896694214878,8.824896694214878,8.824896694214878,8.824896694214878,9.383116883116886,9.383116883116886,8.824896694214878,8.31521739130435,8.31521739130435,7.848011363636364,7.848011363636364,7.848011363636364,7.848011363636364,7.848011363636364,7.418181818181819,7.418181818181819,8.31521739130435,8.31521739130435,7.418181818181819,7.418181818181819,7.021416083916084,7.021416083916084,7.021416083916084,7.021416083916084,7.021416083916084,6.654040404040405,6.654040404040405,6.654040404040405,6.654040404040405,6.654040404040405,7.021416083916084,6.654040404040405,6.654040404040405,7.021416083916084,7.021416083916084,6.654040404040405,7.021416083916084,6.654040404040405,6.654040404040405,6.654040404040405,6.654040404040405,6.654040404040405,6.654040404040405,6.3129058441558445,6.654040404040405,6.654040404040405,6.654040404040405,6.654040404040405,7.021416083916084,7.021416083916084,7.021416083916084,7.021416083916084,7.021416083916084,7.021416083916084,6.654040404040405,7.021416083916084,7.021416083916084,7.021416083916084,7.021416083916084,7.021416083916084,7.021416083916084,7.021416083916084,7.021416083916084,7.021416083916084,7.021416083916084,7.021416083916084,7.021416083916084,7.021416083916084,7.021416083916084,7.021416083916084,7.021416083916084,7.021416083916084,6.654040404040405,7.021416083916084,7.021416083916084,7.021416083916084,7.021416083916084,7.418181818181819,7.418181818181819,7.418181818181819,7.418181818181819,7.418181818181819,7.848011363636364,7.848011363636364,16.94055944055944,15.52353896103896,14.295454545454547,13.220880681818183,12.272727272727273,11.429924242424244,11.429924242424244,11.429924242424244,11.429924242424244,11.429924242424244,11.429924242424244,11.429924242424244,12.272727272727273,12.272727272727273,12.272727272727273,12.272727272727273,12.272727272727273,12.272727272727273,12.272727272727273,11.429924242424244,11.429924242424244,11.429924242424244,11.429924242424244,11.429924242424244,10.675837320574164,10.675837320574164,11.429924242424244,12.272727272727273,11.429924242424244,11.429924242424244,10.675837320574164,11.429924242424244,11.429924242424244,10.675837320574164,11.429924242424244,10.675837320574164,10.675837320574164,10.675837320574164,10.675837320574164,10.675837320574164,14.295454545454547,12.272727272727273,13.220880681818183,12.272727272727273,12.272727272727273,10.675837320574164,25.757575757575758,25.757575757575758,25.757575757575758,25.757575757575758,18.59375,18.59375,16.94055944055944,18.59375,18.59375,15.52353896103896,12.272727272727273,12.272727272727273,12.272727272727273,7.848011363636364,8.824896694214878,8.824896694214878,8.824896694214878,7.848011363636364,7.418181818181819,7.021416083916084,11.429924242424244,11.429924242424244,11.429924242424244,10.675837320574164,11.429924242424244,11.429924242424244,11.429924242424244,11.429924242424244,11.429924242424244,11.429924242424244,11.429924242424244,12.272727272727273,12.272727272727273,12.272727272727273,12.272727272727273,12.272727272727273,12.272727272727273
8.824896694214878,8.824896694214878,8.824896694214878,8.824896694214878,9.383116883116886,9.383116883116886,9.383116883116886,9.383116883116886,8.824896694214878,8.31521739130435,7.848011363636364,7.848011363636364,7.848011363636364,7.848011363636364,7.418181818181819,7.418181818181819,7.418181818181819,8.31521739130435,7.848011363636364,7.418181818181819,7.021416083916084,7.021416083916084,7.021416083916084,7.021416083916084,7.021416083916084,7.021416083916084,7.021416083916084,7.021416083916084,6.654040404040405,6.654040404040405,6.654040404040405,6.654040404040405,5.995297805642635,6.654040404040405,6.654040404040405,6.654040404040405,6.654040404040405,7.021416083916084,6.3129058441558445,6.654040404040405,6.654040404040405,6.654040404040405,6.654040404040405,6.654040404040405,6.654040404040405,6.654040404040405,6.654040404040405,6.654040404040405,6.654040404040405,7.021416083916084,7.021416083916084,7.021416083916084,7.021416083916084,7.021416083916084,7.021416083916084,7.021416083916084,7.021416083916084,7.021416083916084,7.021416083916084,7.021416083916084,7.021416083916084,7.021416083916084,7.021416083916084,7.021416083916084,7.021416083916084,7.021416083916084,7.021416083916084,7.021416083916084,7.021416083916084,7.021416083916084,7.021416083916084,7.021416083916084,7.021416083916084,7.021416083916084,7.021416083916084,7.021416083916084,7.021416083916084,7.418181818181819,7.418181818181819,7.418181818181819,7.418181818181819,7.418181818181819,7.418181818181819,7.848011363636364,22.892045454545457,18.59375,16.94055944055944,16.94055944055944,14.295454545454547,13.220880681818183,12.272727272727273,11.429924242424244,11.429924242424244,11.429924242424244,11.429924242424244,11.429924242424244,11.429924242424244,12.272727272727273,12.272727272727273,12.272727272727273,12.272727272727273,12.272727272727273,12.272727272727273,12.272727272727273,11.429924242424244,11.429924242424244,11.429924242424244,11.429924242424244,11.429924242424244,11.429924242424244,11.429924242424244,11.429924242424244,12.272727272727273,11.429924242424244,11.429924242424244,11.429924242424244,11.429924242424244,10.675837320574164,10.675837320574164,11.429924242424244,11.429924242424244,10.675837320574164,11.429924242424244,10.675837320574164,10.675837320574164,14.295454545454547,13.220880681818183,13.220880681818183,12.272727272727273,12.272727272727273,10.675837320574164,25.757575757575758,25.757575757575758,25.757575757575758,18.59375,18.59375,18.59375,15.52353896103896,15.52353896103896,10.675837320574164,13.220880681818183,12.272727272727273,12.272727272727273,7.848011363636364,7.848011363636364,9.383116883116886,8.824896694214878,8.824896694214878,10.675837320574164,10.675837320574164,11.429924242424244,11.429924242424244,11.429924242424244,11.429924242424244,11.429924242424244,11.429924242424244,11.429924242424244,11.429924242424244,12.272727272727273,12.272727272727273,12.272727272727273,12.272727272727273,12.272727272727273,12.272727272727273,12.272727272727273,12.272727272727273,12.272727272727273,12.272727272727273
8.824896694214878,8.824896694214878,8.824896694214878,9.383116883116886,9.383116883116886,9.383116883116886,9.383116883116886,9.383116883116886,8.824896694214878,8.31521739130435,7.848011363636364,7.848011363636364,7.848011363636364,7.848011363636364,7.418181818181819,7.418181818181819,7.848011363636364,8.31521739130435,7.848011363636364,7.418181818181819,7.021416083916084,7.021416083916084,7.021416083916084,7.021416083916084,7.021416083916084,7.021416083916084,5.421554252199415,5.421554252199415,6.654040404040405,6.654040404040405,6.654040404040405,6.654040404040405,5.995297805642635,6.654040404040405,6.654040404040405,6.654040404040405,6.654040404040405,6.654040404040405,6.3129058441558445,6.654040404040405,6.654040404040405,6.654040404040405,6.654040404040405,7.021416083916084,7.021416083916084,7.021416083916084,6.654040404040405,6.654040404040405,6.654040404040405,7.021416083916084,7.021416083916084,7.021416083916084,7.021416083916084,7.021416083916084,7.021416083916084,7.021416083916084,7.021416083916084,7.021416083916084,7.021416083916084,7.021416083916084,7.021416083916084,7.021416083916084,7.021416083916084,7.021416083916084,7.021416083916084,7.021416083916084,7.021416083916084,7.021416083916084,7.021416083916084,7.021416083916084,7.021416083916084,7.021416083916084,7.021416083916084,7.021416083916084,7.021416083916084,7.021416083916084,7.021416083916084,7.418181818181819,7.418181818181819,7.418181818181819,7.418181818181819,7.418181818181819,7.848011363636364,7.848011363636364,33.94480519480519,29.339488636363637,25.757575757575758,22.892045454545457,20.54752066115703,18.59375,16.94055944055944,15.52353896103896,14.295454545454547,13.220880681818183,12.272727272727273,12.272727272727273,12.272727272727273,12.272727272727273,12.272727272727273,12.272727272727273,12.272727272727273,12.272727272727273,12.272727272727273,12.272727272727273,11.429924242424244,11.429924242424244,11.429924242424244,11.429924242424244,11.429924242424244,11.429924242424244,11.429924242424244,11.429924242424244,11.429924242424244,10.675837320574164,10.675837320574164,10.675837320574164,10.675837320574164,10.675837320574164,10.675837320574164,10.675837320574164,10.675837320574164,10.675837320574164,11.429924242424244,10.675837320574164,10.675837320574164,12.272727272727273,14.295454545454547,13.220880681818183,12.272727272727273,11.429924242424244,10.675837320574164,16.94055944055944,16.94055944055944,16.94055944055944,18.59375,18.59375,18.59375,15.52353896103896,15.52353896103896,14.295454545454547,12.272727272727273,12.272727272727273,12.272727272727273,12.272727272727273,11.429924242424244,11.429924242424244,10.675837320574164,11.429924242424244,10.675837320574164,11.429924242424244,11.429924242424244,11.429924242424244,11.429924242424244,11.429924242424244,11.429924242424244,11.429924242424244,11.429924242424244,12.272727272727273,12.272727272727273,12.272727272727273,11.429924242424244,12.272727272727273,12.272727272727273,12.272727272727273,12.272727272727273,12.272727272727273,12.272727272727273,12.272727272727273
8.824896694214878,8.824896694214878,9.383116883116886,9.383116883116886,9.383116883116886,9.383116883116886,9.383116883116886,9.383116883116886,8.824896694214878,8.31521739130435,7.848011363636364,7.418181818181819,7.418181818181819,7.418181818181819,7.418181818181819,7.418181818181819,7.848011363636364,7.848011363636364,7.848011363636364,7.418181818181819,7.418181818181819,7.021416083916084,7.021416083916084,7.021416083916084,7.021416083916084,5.698863636363637,5.421554252199415,6.654040404040405,6.654040404040405,6.654040404040405,6.654040404040405,6.654040404040405,6.3129058441558445,6.654040404040405,6.654040404040405,6.654040404040405,7.021416083916084,6.654040404040405,6.654040404040405,6.654040404040405,6.654040404040405,6.654040404040405,6.654040404040405,7.021416083916084,7.021416083916084,7.021416083916084,6.654040404040405,6.654040404040405,6.654040404040405,7.021416083916084,7.021416083916084,7.021416083916084,7.021416083916084,7.021416083916084,7.021416083916084,7.021416083916084,7.021416083916084,7.021416083916084,7.021416083916084,7.021416083916084,7.021416083916084,7.021416083916084,7.021416083916084,7.021416083916084,7.021416083916084,7.021416083916084,7.021416083916084,7.021416083916084,7.021416083916084,7.021416083916084,7.021416083916084,7.021416083916084,7.021416083916084,7.021416083916084,7.021416083916084,7.021416083916084,7.021416083916084,7.418181818181819,7.418181818181819,7.418181818181819,7.418181818181819,7.418181818181819,7.848011363636364,7.848011363636364,33.94480519480519,29.339488636363637,33.94480519480519,29.339488636363637,25.757575757575758,22.892045454545457,20.54752066115703,18.59375,16.94055944055944,15.52353896103896,14.295454545454547,13.220880681818183,12.272727272727273,12.272727272727273,12.272727272727273,12.272727272727273,12.272727272727273,12.272727272727273,12.272727272727273,11.429924242424244,11.429924242424244,11.429924242424244,11.429924242424244,11.429924242424244,11.429924242424244,11.429924242424244,11.429924242424244,11.429924242424244,11.429924242424244,10.675837320574164,11.429924242424244,10.675837320574164,10.675837320574164,10.675837320574164,10.675837320574164,10.675837320574164,10.675837320574164,10.675837320574164,10.675837320574164,11.429924242424244,10.675837320574164,10.675837320574164,11.429924242424244,11.429924242424244,10.675837320574164,10.675837320574164,10.675837320574164,10.675837320574164,25.757575757575758,22.892045454545457,20.54752066115703,18.59375,16.94055944055944,15.52353896103896,14.295454545454547,10.675837320574164,13.220880681818183,12.272727272727273,10.675837320574164,11.429924242424244,11.429924242424244,11.429924242424244,11.429924242424244,11.429924242424244,11.429924242424244,11.429924242424244,11.429924242424244,11.429924242424244,11.429924242424244,11.429924242424244,11.429924242424244,11.429924242424244,11.429924242424244,11.429924242424244,11.429924242424244,11.429924242424244,11.429924242424244,11.429924242424244,12.272727272727273,12.272727272727273,12.272727272727273,12.272727272727273,12.272727272727273,12.272727272727273
8.824896694214878,9.383116883116886,9.383116883116886,9.383116883116886,9.383116883116886,9.383116883116886,9.383116883116886,9.383116883116886,8.824896694214878,8.31521739130435,7.848011363636364,7.418181818181819,7.418181818181819,7.418181818181819,7.418181818181819,7.418181818181819,7.848011363636364,7.848011363636364,7.848011363636364,7.848011363636364,7.418181818181819,7.021416083916084,7.021416083916084,7.021416083916084,6.3129058441558445,5.698863636363637,5.698863636363637,6.654040404040405,6.654040404040405,6.654040404040405,6.3129058441558445,6.654040404040405,6.3129058441558445,5.995297805642635,6.654040404040405,6.654040404040405,7.021416083916084,7.021416083916084,6.654040404040405,6.654040404040405,6.654040404040405,6.654040404040405,7.021416083916084,7.021416083916084,7.021416083916084,7.021416083916084,6.654040404040405,6.654040404040405,6.654040404040405,7.021416083916084,7.021416083916084,7.021416083916084,7.021416083916084,7.021416083916084,7.021416083916084,7.021416083916084,7.021416083916084,7.021416083916084,7.021416083916084,7.021416083916084,7.021416083916084,7.021416083916084,7.021416083916084,7.021416083916084,7.021416083916084,7.021416083916084,7.021416083916084,7.021416083916084,7.021416083916084,7.021416083916084,7.021416083916084,7.021416083916084,7.021416083916084,7.021416083916084,7.021416083916084,7.021416083916084,7.418181818181819,7.418181818181819,7.418181818181819,7.418181818181819,7.418181818181819,7.418181818181819,7.848011363636364,48.68181818181819,33.94480519480519,29.339488636363637,33.94480519480519,29.339488636363637,25.757575757575758,22.892045454545457,20.54752066115703,18.59375,16.94055944055944,15.52353896103896,14.295454545454547,13.220880681818183,12.272727272727273,12.272727272727273,12.272727272727273,12.272727272727273,12.272727272727273,12.272727272727273,12.272727272727273,11.429924242424244,11.429924242424244,11.429924242424244,11.429924242424244,11.429924242424244,11.429924242424244,11.429924242424244,11.429924242424244,11.429924242424244,11.429924242424244,10.675837320574164,11.429924242424244,11.429924242424244,11.429924242424244,10.675837320574164,10.675837320574164,11.429924242424244,11.429924242424244,11.429924242424244,11.429924242424244,11.429924242424244,10.675837320574164,10.675837320574164,10.675837320574164,11.429924242424244,11.429924242424244,11.429924242424244,11.429924242424244,11.429924242424244,11.429924242424244,11.429924242424244,11.429924242424244,11.429924242424244,11.429924242424244,11.429924242424244,10.675837320574164,10.675837320574164,10.675837320574164,10.675837320574164,10.675837320574164,11.429924242424244,11.429924242424244,11.429924242424244,11.429924242424244,11.429924242424244,11.429924242424244,11.429924242424244,11.429924242424244,11.429924242424244,11.429924242424244,11.429924242424244,11.429924242424244,11.429924242424244,11.429924242424244,11.429924242424244,11.429924242424244,12.272727272727273,11.429924242424244,11.429924242424244,12.272727272727273,12.272727272727273,12.272727272727273,12.272727272727273,12.272727272727273,12.272727272727273
9.383116883116886,9.383116883116886,9.383116883116886,9.383116883116886,9.383116883116886,9.383116883116886,9.383116883116886,9.383116883116886,8.824896694214878,8.31521739130435,7.848011363636364,7.418181818181819,7.418181818181819,7.418181818181819,7.418181818181819,7.418181818181819,7.848011363636364,7.848011363636364,7.848011363636364,7.848011363636364,7.418181818181819,7.418181818181819,7.021416083916084,7.021416083916084,6.3129058441558445,5.995297805642635,5.698863636363637,5.421554252199415,6.654040404040405,6.654040404040405,6.3129058441558445,6.654040404040405,6.3129058441558445,5.995297805642635,5.995297805642635,6.654040404040405,7.021416083916084,7.021416083916084,5.995297805642635,6.654040404040405,6.654040404040405,6.654040404040405,7.021416083916084,7.021416083916084,7.021416083916084,7.021416083916084,6.654040404040405,6.654040404040405,6.654040404040405,6.654040404040405,6.654040404040405,6.654040404040405,7.021416083916084,7.021416083916084,7.021416083916084,7.021416083916084,7.021416083916084,7.021416083916084,7.021416083916084,7.021416083916084,7.021416083916084,7.021416083916084,7.021416083916084,7.021416083916084,7.021416083916084,7.021416083916084,7.021416083916084,7.021416083916084,7.021416083916084,7.021416083916084,7.021416083916084,7.021416083916084,7.021416083916084,7.021416083916084,7.021416083916084,7.021416083916084,7.418181818181819,7.418181818181819,7.418181818181819,7.418181818181819,7.418181818181819,7.848011363636364,7.848011363636364,29.339488636363637,33.94480519480519,29.339488636363637,29.339488636363637,29.339488636363637,25.757575757575758,22.892045454545457,20.54752066115703,18.59375,16.94055944055944,15.52353896103896,14.295454545454547,13.220880681818183,12.272727272727273,12.272727272727273,12.272727272727273,12.272727272727273,12.272727272727273,12.272727272727273,12.272727272727273,11.429924242424244,11.429924242424244,11.429924242424244,11.429924242424244,11.429924242424244,11.429924242424244,11.429924242424244,11.429924242424244,11.429924242424244,11.429924242424244,11.429924242424244,11.429924242424244,11.429924242424244,11.429924242424244,11.429924242424244,11.429924242424244,10.675837320574164,11.429924242424244,11.429924242424244,11.429924242424244,11.429924242424244,11.429924242424244,10.675837320574164,10.675837320574164,10.675837320574164,11.429924242424244,11.429924242424244,11.429924242424244,11.429924242424244,11.429924242424244,11.429924242424244,11.429924242424244,11.429924242424244,11.429924242424244,10.675837320574164,10.675837320574164,10.675837320574164,11.429924242424244,10.675837320574164,11.429924242424244,11.429924242424244,11.429924242424244,11.429924242424244,11.429924242424244,11.429924242424244,11.429924242424244,11.429924242424244,11.429924242424244,11.429924242424244,11.429924242424244,11.429924242424244,11.429924242424244,11.429924242424244,11.429924242424244,11.429924242424244,11.429924242424244,12.272727272727273,11.429924242424244,11.429924242424244,12.272727272727273,12.272727272727273,12.272727272727273,12.272727272727273,12.272727272727273,12.272727272727273
9.383116883116886,9.383116883116886,9.383116883116886,9.383116883116886,9.383116883116886,9.383116883116886,9.383116883116886,9.383116883116886,8.824896694214878,8.31521739130435,7.848011363636364,7.418181818181819,7.021416083916084,7.418181818181819,7.848011363636364,7.848011363636364,7.848011363636364,7.848011363636364,7.848011363636364,7.848011363636364,7.848011363636364,7.418181818181819,7.021416083916084,7.021416083916084,6.3129058441558445,6.654040404040405,5.698863636363637,6.654040404040405,6.654040404040405,6.654040404040405,6.3129058441558445,6.654040404040405,6.3129058441558445,5.995297805642635,5.995297805642635,7.021416083916084,7.021416083916084,7.021416083916084,7.021416083916084,6.654040404040405,6.654040404040405,6.654040404040405,6.654040404040405,6.654040404040405,7.021416083916084,7.021416083916084,6.654040404040405,6.654040404040405,6.654040404040405,6.654040404040405,6.654040404040405,6.654040404040405,7.021416083916084,7.021416083916084,7.021416083916084,7.021416083916084,7.021416083916084,7.021416083916084,7.021416083916084,7.021416083916084,7.021416083916084,7.021416083916084,7.021416083916084,7.021416083916084,7.021416083916084,7.021416083916084,7.021416083916084,7.021416083916084,7.021416083916084,7.021416083916084,7.021416083916084,7.021416083916084,7.021416083916084,7.021416083916084,7.021416083916084,7.021416083916084,7.418181818181819,7.418181818181819,7.418181818181819,7.418181818181819,7.418181818181819,7.848011363636364,7.848011363636364,33.94480519480519,25.757575757575758,25.757575757575758,22.892045454545457,22.892045454545457,20.54752066115703,18.59375,20.54752066115703,18.59375,16.94055944055944,15.52353896103896,14.295454545454547,13.220880681818183,12.272727272727273,12.272727272727273,12.272727272727273,12.272727272727273,12.272727272727273,12.272727272727273,12.272727272727273,11.429924242424244,11.429924242424244,11.429924242424244,11.429924242424244,11.429924242424244,11.429924242424244,11.429924242424244,11.429924242424244,11.429924242424244,11.429924242424244,11.429924242424244,11.429924242424244,11.429924242424244,11.429924242424244,11.429924242424244,11.429924242424244,11.429924242424244,11.429924242424244,11.429924242424244,11.429924242424244,11.429924242424244,11.429924242424244,11.429924242424244,10.675837320574164,11.429924242424244,11.429924242424244,11.429924242424244,11.429924242424244,11.429924242424244,11.429924242424244,11.429924242424244,10.675837320574164,11.429924242424244,11.429924242424244,11.429924242424244,10.675837320574164,11.429924242424244,11.429924242424244,10.675837320574164,11.429924242424244,11.429924242424244,11.429924242424244,11.429924242424244,11.429924242424244,11.429924242424244,11.429924242424244,11.429924242424244,11.429924242424244,11.429924242424244,11.429924242424244,11.429924242424244,11.429924242424244,11.429924242424244,11.429924242424244,11.429924242424244,11.429924242424244,11.429924242424244,11.429924242424244,11.429924242424244,11.429924242424244,12.272727272727273,12.272727272727273,12.272727272727273,12.272727272727273,12.272727272727273
9.383116883116886,9.383116883116886,9.383116883116886,9.383116883116886,9.383116883116886,9.383116883116886,10.675837320574164,9.997159090909092,9.383116883116886,8.824896694214878,8.31521739130435,7.848011363636364,7.418181818181819,7.418181818181819,7.848011363636364,7.848011363636364,7.848011363636364,7.848011363636364,7.848011363636364,7.848011363636364,7.848011363636364,7.848011363636364,7.418181818181819,7.021416083916084,6.654040404040405,6.654040404040405,6.3129058441558445,6.654040404040405,6.654040404040405,6.654040404040405,6.3129058441558445,6.654040404040405,6.3129058441558445,6.3129058441558445,5.995297805642635,7.021416083916084,7.021416083916084,7.021416083916084,7.021416083916084,6.654040404040405,6.654040404040405,6.654040404040405,6.654040404040405,6.654040404040405,6.654040404040405,6.654040404040405,6.654040404040405,6.654040404040405,6.654040404040405,7.021416083916084,7.021416083916084,7.021416083916084,7.021416083916084,7.021416083916084,7.021416083916084,7.021416083916084,7.021416083916084,7.021416083916084,7.021416083916084,7.021416083916084,7.021416083916084,7.021416083916084,7.021416083916084,7.021416083916084,7.021416083916084,7.021416083916084,7.021416083916084,7.021416083916084,7.021416083916084,7.021416083916084,7.021416083916084,7.021416083916084,7.021416083916084,7.021416083916084,7.021416083916084,7.021416083916084,7.418181818181819,7.418181818181819,7.418181818181819,7.418181818181819,7.418181818181819,7.418181818181819,25.757575757575758,25.757575757575758,22.892045454545457,25.757575757575758,22.892045454545457,20.54752066115703,20.54752066115703,18.59375,16.94055944055944,18.59375,16.94055944055944,15.52353896103896,14.295454545454547,13.220880681818183,12.272727272727273,12.272727272727273,12.272727272727273,12.272727272727273,12.272727272727273,12.272727272727273,12.272727272727273,11.429924242424244,11.429924242424244,11.429924242424244,11.429924242424244,11.429924242424244,11.429924242424244,11.429924242424244,11.429924242424244,11.429924242424244,11.429924242424244,11.429924242424244,11.429924242424244,11.429924242424244,11.429924242424244,11.429924242424244,11.429924242424244,11.429924242424244,11.429924242424244,11.429924242424244,11.429924242424244,11.429924242424244,11.429924242424244,11.429924242424244,10.675837320574164,11.429924242424244,11.429924242424244,11.429924242424244,11.429924242424244,11.429924242424244,11.429924242424244,11.429924242424244,10.675837320574164,11.429924242424244,11.429924242424244,11.429924242424244,11.429924242424244,11.429924242424244,11.429924242424244,11.429924242424244,11.429924242424244,11.429924242424244,11.429924242424244,11.429924242424244,11.429924242424244,11.429924242424244,11.429924242424244,11.429924242424244,11.429924242424244,11.429924242424244,11.429924242424244,11.429924242424244,11.429924242424244,11.429924242424244,11.429924242424244,11.429924242424244,11.429924242424244,11.429924242424244,11.429924242424244,11.429924242424244,12.272727272727273,12.272727272727273,12.272727272727273,12.272727272727273,12.272727272727273,12.272727272727273
9.383116883116886,9.383116883116886,9.997159090909092,9.997159090909092,9.997159090909092,9.997159090909092,9.997159090909092,9.997159090909092,9.997159090909092,9.383116883116886,8.824896694214878,8.31521739130435,7.848011363636364,7.418181818181819,7.848011363636364,7.848011363636364,7.848011363636364,7.848011363636364,7.848011363636364,7.848011363636364,7.848011363636364,7.848011363636364,7.418181818181819,7.021416083916084,7.021416083916084,6.654040404040405,6.3129058441558445,6.654040404040405,6.654040404040405,6.654040404040405,6.3129058441558445,6.3129058441558445,6.3129058441558445,6.3129058441558445,5.995297805642635,6.654040404040405,7.021416083916084,7.021416083916084,7.021416083916084,7.021416083916084,6.654040404040405,6.654040404040405,6.654040404040405,6.654040404040405,6.654040404040405,6.654040404040405,6.654040404040405,6.654040404040405,6.654040404040405,7.021416083916084,7.021416083916084,7.021416083916084,7.021416083916084,7.021416083916084,7.021416083916084,7.021416083916084,7.021416083916084,7.021416083916084,7.021416083916084,7.021416083916084,7.021416083916084,7.021416083916084,7.021416083916084,7.021416083916084,7.021416083916084,7.021416083916084,7.021416083916084,7.021416083916084,7.021416083916084,7.021416083916084,7.021416083916084,7.021416083916084,7.021416083916084,7.021416083916084,7.021416083916084,7.021416083916084,7.418181818181819,7.418181818181819,7.418181818181819,7.418181818181819,7.418181818181819,22.892045454545457,22.892045454545457,22.892045454545457,22.892045454545457,18.59375,20.54752066115703,20.54752066115703,18.59375,18.59375,16.94055944055944,15.52353896103896,14.295454545454547,15.52353896103896,14.295454545454547,13.220880681818183,12.272727272727273,12.272727272727273,12.272727272727273,12.272727272727273,12.272727272727273,12.272727272727273,12.272727272727273,11.429924242424244,11.429924242424244,11.429924242424244,11.429924242424244,11.429924242424244,11.429924242424244,11.429924242424244,11.429924242424244,11.429924242424244,11.429924242424244,11.429924242424244,11.429924242424244,11.429924242424244,11.429924242424244,11.429924242424244,11.429924242424244,11.429924242424244,11.429924242424244,11.429924242424244,11.429924242424244,11.429924242424244,11.429924242424244,11.429924242424244,10.675837320574164,11.429924242424244,11.429924242424244,11.429924242424244,11.429924242424244,11.429924242424244,11.429924242424244,11.429924242424244,10.675837320574164,11.429924242424244,11.429924242424244,11.429924242424244,11.429924242424244,11.429924242424244,11.429924242424244,11.429924242424244,11.429924242424244,11.429924242424244,11.429924242424244,11.429924242424244,11.429924242424244,11.429924242424244,11.429924242424244,11.429924242424244,11.429924242424244,11.429924242424244,11.429924242424244,11.429924242424244,11.429924242424244,11.429924242424244,11.429924242424244,11.429924242424244,11.429924242424244,11.429924242424244,11.429924242424244,11.429924242424244,12.272727272727273,12.272727272727273,12.272727272727273,12.272727272727273,12.272727272727273,12.272727272727273
9.997159090909092,9.997159090909092,9.997159090909092,9.997159090909092,9.997159090909092,9.997159090909092,9.997159090909092,9.997159090909092,9.997159090909092,9.383116883116886,8.824896694214878,8.31521739130435,7.848011363636364,7.418181818181819,7.848011363636364,7.848011363636364,7.848011363636364,7.848011363636364,7.848011363636364,7.848011363636364,7.848011363636364,7.848011363636364,7.418181818181819,7.418181818181819,7.021416083916084,6.654040404040405,6.3129058441558445,6.3129058441558445,6.3129058441558445,6.654040404040405,6.3129058441558445,6.3129058441558445,6.3129058441558445,6.3129058441558445,5.995297805642635,7.021416083916084,7.021416083916084,7.021416083916084,7.021416083916084,7.021416083916084,7.021416083916084,6.654040404040405,6.654040404040405,6.654040404040405,6.654040404040405,6.654040404040405,6.654040404040405,6.654040404040405,6.654040404040405,6.654040404040405,7.021416083916084,7.021416083916084,7.021416083916084,7.021416083916084,7.021416083916084,7.021416083916084,7.021416083916084,7.021416083916084,7.021416083916084,7.021416083916084,7.021416083916084,7.021416083916084,7.021416083916084,7.021416083916084,7.021416083916084,7.021416083916084,7.021416083916084,7.021416083916084,6.654040404040405,7.021416083916084,7.021416083916084,7.021416083916084,7.021416083916084,7.021416083916084,7.021416083916084,7.021416083916084,7.418181818181819,7.418181818181819,7.418181818181819,7.418181818181819,7.418181818181819,22.892045454545457,22.892045454545457,16.94055944055944,16.94055944055944,18.59375,20.54752066115703,20.54752066115703,18.59375,18.59375,16.94055944055944,18.59375,16.94055944055944,15.52353896103896,14.295454545454547,13.220880681818183,12.272727272727273,12.272727272727273,12.272727272727273,12.272727272727273,12.272727272727273,12.272727272727273,12.272727272727273,12.272727272727273,11.429924242424244,11.429924242424244,11.429924242424244,11.429924242424244,11.429924242424244,11.429924242424244,11.429924242424244,11.429924242424244,11.429924242424244,11.429924242424244,11.429924242424244,11.429924242424244,11.429924242424244,11.429924242424244,11.429924242424244,11.429924242424244,11.429924242424244,11.429924242424244,11.429924242424244,11.429924242424244,11.429924242424244,11.429924242424244,11.429924242424244,11.429924242424244,11.429924242424244,11.429924242424244,11.429924242424244,11.429924242424244,10.675837320574164,11.429924242424244,10.675837320574164,11.429924242424244,11.429924242424244,11.429924242424244,11.429924242424244,11.429924242424244,11.429924242424244,11.429924242424244,11.429924242424244,11.429924242424244,11.429924242424244,11.429924242424244,11.429924242424244,11.429924242424244,11.429924242424244,11.429924242424244,11.429924242424244,11.429924242424244,11.429924242424244,11.429924242424244,11.429924242424244,11.429924242424244,11.429924242424244,11.429924242424244,11.429924242424244,11.429924242424244,11.429924242424244,11.429924242424244,12.272727272727273,12.272727272727273,12.272727272727273,12.272727272727273,12.272727272727273,12.272727272727273
9.997159090909092,9.997159090909092,9.997159090909092,9.997159090909092,9.997159090909092,9.997159090909092,9.997159090909092,9.997159090909092,9.997159090909092,9.383116883116886,8.824896694214878,8.31521739130435,7.848011363636364,7.848011363636364,7.848011363636364,7.848011363636364,7.848011363636364,7.848011363636364,7.848011363636364,7.848011363636364,7.848011363636364,7.418181818181819,7.418181818181819,7.418181818181819,7.021416083916084,7.021416083916084,6.3129058441558445,6.3129058441558445,6.3129058441558445,6.3129058441558445,6.3129058441558445,6.3129058441558445,6.3129058441558445,6.3129058441558445,5.995297805642635,7.021416083916084,7.021416083916084,7.021416083916084,7.021416083916084,7.021416083916084,7.021416083916084,6.654040404040405,6.654040404040405,6.654040404040405,6.654040404040405,6.654040404040405,6.654040404040405,7.021416083916084,7.021416083916084,7.021416083916084,7.021416083916084,7.021416083916084,7.021416083916084,7.021416083916084,7.021416083916084,7.021416083916084,7.021416083916084,7.021416083916084,7.021416083916084,7.021416083916084,7.021416083916084,7.021416083916084,7.021416083916084,7.021416083916084,7.021416083916084,7.021416083916084,7.021416083916084,6.654040404040405,6.654040404040405,7.021416083916084,7.021416083916084,7.021416083916084,7.021416083916084,7.021416083916084,7.021416083916084,7.021416083916084,7.418181818181819,7.418181818181819,7.418181818181819,7.418181818181819,7.418181818181819,22.892045454545457,22.892045454545457,16.94055944055944,22.892045454545457,18.59375,22.892045454545457,20.54752066115703,20.54752066115703,18.59375,20.54752066115703,18.59375,16.94055944055944,15.52353896103896,14.295454545454547,13.220880681818183,12.272727272727273,12.272727272727273,12.272727272727273,12.272727272727273,12.272727272727273,12.272727272727273,12.272727272727273,11.429924242424244,11.429924242424244,11.429924242424244,11.429924242424244,11.429924242424244,11.429924242424244,11.429924242424244,11.429924242424244,11.429924242424244,11.429924242424244,11.429924242424244,11.429924242424244,11.429924242424244,11.429924242424244,11.429924242424244,11.429924242424244,11.429924242424244,11.429924242424244,11.429924242424244,11.429924242424244,11.429924242424244,11.429924242424244,11.429924242424244,11.429924242424244,11.429924242424244,11.429924242424244,11.429924242424244,11.429924242424244,10.675837320574164,10.675837320574164,11.429924242424244,10.675837320574164,10.675837320574164,11.429924242424244,11.429924242424244,11.429924242424244,11.429924242424244,11.429924242424244,11.429924242424244,11.429924242424244,11.429924242424244,11.429924242424244,11.429924242424244,11.429924242424244,11.429924242424244,11.429924242424244,11.429924242424244,11.429924242424244,11.429924242424244,11.429924242424244,11.429924242424244,11.429924242424244,11.429924242424244,11.429924242424244,11.429924242424244,11.429924242424244,11.429924242424244,11.429924242424244,11.429924242424244,12.272727272727273,12.272727272727273,12.272727272727273,12.272727272727273,12.272727272727273,12.272727272727273
9.997159090909092,9.997159090909092,9.997159090909092,9.383116883116886,9.997159090909092,9.997159090909092,9.997159090909092,9.997159090909092,9.997159090909092,9.383116883116886,8.824896694214878,8.824896694214878,8.31521739130435,7.848011363636364,7.848011363636364,7.848011363636364,7.848011363636364,7.848011363636364,7.848011363636364,7.848011363636364,7.418181818181819,7.418181818181819,7.418181818181819,7.418181818181819,7.021416083916084,7.021416083916084,7.021416083916084,6.3129058441558445,6.3129058441558445,6.3129058441558445,6.3129058441558445,6.3129058441558445,7.021416083916084,7.021416083916084,5.995297805642635,7.021416083916084,7.021416083916084,7.021416083916084,7.021416083916084,7.021416083916084,7.021416083916084,7.021416083916084,6.654040404040405,6.654040404040405,6.654040404040405,6.654040404040405,7.021416083916084,7.021416083916084,7.021416083916084,7.021416083916084,7.021416083916084,7.021416083916084,7.021416083916084,7.021416083916084,7.021416083916084,7.021416083916084,7.021416083916084,7.021416083916084,7.021416083916084,7.021416083916084,7.021416083916084,7.021416083916084,7.021416083916084,7.021416083916084,7.021416083916084,7.021416083916084,7.021416083916084,7.021416083916084,6.654040404040405,7.021416083916084,7.021416083916084,7.021416083916084,7.021416083916084,7.021416083916084,7.418181818181819,7.418181818181819,7.418181818181819,7.418181818181819,7.418181818181819,7.418181818181819,7.418181818181819,20.54752066115703,20.54752066115703,20.54752066115703,20.54752066115703,20.54752066115703,22.892045454545457,20.54752066115703,20.54752066115703,18.59375,20.54752066115703,18.59375,16.94055944055944,15.52353896103896,14.295454545454547,13.220880681818183,12.272727272727273,12.272727272727273,12.272727272727273,12.272727272727273,12.272727272727273,12.272727272727273,12.272727272727273,12.272727272727273,11.429924242424244,11.429924242424244,11.429924242424244,11.429924242424244,11.429924242424244,11.429924242424244,11.429924242424244,11.429924242424244,11.429924242424244,11.429924242424244,11.429924242424244,11.429924242424244,11.429924242424244,11.429924242424244,11.429924242424244,11.429924242424244,11.429924242424244,11.429924242424244,11.429924242424244,11.429924242424244,11.429924242424244,11.429924242424244,11.429924242424244,11.429924242424244,11.429924242424244,11.429924242424244,11.429924242424244,10.675837320574164,10.675837320574164,11.429924242424244,10.675837320574164,10.675837320574164,11.429924242424244,11.429924242424244,11.429924242424244,11.429924242424244,11.429924242424244,11.429924242424244,11.429924242424244,11.429924242424244,11.429924242424244,11.429924242424244,11.429924242424244,11.429924242424244,11.429924242424244,11.429924242424244,11.429924242424244,11.429924242424244,11.429924242424244,11.429924242424244,11.429924242424244,11.429924242424244,11.429924242424244,11.429924242424244,11.429924242424244,11.429924242424244,11.429924242424244,11.429924242424244,11.429924242424244,12.272727272727273,12.272727272727273,12.272727272727273,12.272727272727273,12.272727272727273
